# .PCD v0.7 - Point Cloud Data file format
VERSION 0.7
FIELDS x y z rgb
SIZE 4 4 4 4
TYPE F F F U
COUNT 1 1 1 1
WIDTH 1134
HEIGHT 1
VIEWPOINT 0 0 0 1 0 0 0
POINTS 1134
DATA ascii
0.29167467 0.10812926 0.5244 1584938
-0.26606303 0.11426928 0.5281834 2702134
-0.25534385 0.11365589 0.52352661 2505268
-0.24841624 0.11446404 0.52039999 2439474
-0.14839749 0.11185989 0.52254999 2109737
0.03735248 0.11698236 0.52709997 1780512
0.045422737 0.11675235 0.5260846 2109478
0.055653911 0.11651803 0.52509165 1977896
0.065009922 0.11321396 0.52127504 1780773
0.075185344 0.11382807 0.52419996 1912101
0.085605845 0.11511842 0.52351999 1583139
0.28392127 0.11513843 0.52296251 1650729
0.29401836 0.11294072 0.52791667 1650731
0.32481578 0.11950391 0.52129996 1584686
-0.26203075 0.1235913 0.52869999 2767668
-0.25508699 0.12602924 0.52245998 2571060
-0.24497776 0.12782547 0.52562857 2307889
-0.13280414 0.12916064 0.52829999 2109998
-0.12760229 0.12765193 0.52205002 2110511
-0.1037341 0.1288919 0.52415001 1847595
-0.096400723 0.12459828 0.52389997 1650475
-0.08735615 0.12025654 0.52079999 1979176
-0.041718241 0.12952191 0.52829999 1648161
-0.035526641 0.12948002 0.52807498 1517859
-0.025598833 0.1292714 0.52714998 1319967
-0.015141635 0.12771823 0.52501428 1319965
-0.0075334534 0.1274049 0.52341998 1320220
0.027096415 0.12996876 0.51999998 1386275
0.039717861 0.12159943 0.52579999 1911847
0.044501774 0.1207519 0.52429998 2175272
0.055527307 0.12114324 0.52392495 2109479
0.065587819 0.12242576 0.52603328 1912869
0.075372189 0.12619823 0.52354997 1781033
0.084842667 0.12632453 0.52542502 1715238
0.28733626 0.12131631 0.52173334 1782057
0.29495436 0.12199159 0.52387494 1650726
0.32669988 0.12335896 0.52124 1584941
0.33197263 0.12793837 0.5212 1584426
-0.29297796 0.13567267 0.52598566 16485467
-0.28623062 0.13568817 0.5259214 16617304
-0.27903715 0.1352091 0.52663332 16487770
-0.25573438 0.13024975 0.52579999 2506039
-0.24431188 0.13065805 0.5271666 2373169
-0.12426005 0.13464478 0.52488571 2044461
-0.11677046 0.13846019 0.5205 2044461
-0.10422429 0.13485716 0.52365834 1781803
-0.096975826 0.13960797 0.52079999 1716523
-0.042580336 0.13821414 0.52394998 1188124
-0.037631303 0.13806751 0.52335 1385756
-0.012654564 0.13687418 0.528 1319967
-0.0058379122 0.13493867 0.52522504 1254170
0.0032546681 0.13758002 0.52314001 1253911
0.014991945 0.13789016 0.52245992 1451290
0.026932508 0.13490993 0.5212 1517603
0.034223717 0.13502543 0.5219875 1846052
0.078261621 0.1300077 0.5205 1912619
0.084821969 0.13172925 0.52098882 1715240
0.091192096 0.13397522 0.52036667 1780520
-0.29635882 0.14080177 0.52959996 16682077
-0.28307831 0.14029233 0.52746665 16617563
-0.27868664 0.14053851 0.52829999 16490858
-0.19332427 0.14709926 0.52715999 1848623
-0.18547879 0.14339285 0.52326661 2044974
-0.17631626 0.14592071 0.52427995 2110511
-0.13410948 0.14523114 0.52610004 2175533
-0.12487923 0.14510275 0.52515 1913387
-0.11558885 0.14548381 0.52482224 1847595
-0.10686656 0.14644159 0.5219143 1650472
-0.093011498 0.1417817 0.52579999 1584938
-0.084749304 0.14520669 0.52459997 1716524
-0.075860456 0.14636078 0.52361429 1978668
-0.064834408 0.14604355 0.52604997 1780776
-0.054785263 0.14512686 0.52616 1517084
-0.048009276 0.14184673 0.5254333 1254427
-0.032690383 0.1415574 0.52269995 1451549
-0.014713734 0.14331166 0.5255667 1385499
-0.0054594311 0.14250228 0.5223909 1319961
0.0039863684 0.14267604 0.5221917 1188118
0.015427218 0.14335684 0.52257061 1516830
0.02530206 0.1445429 0.52555388 1648672
0.034342255 0.1442135 0.52619994 1780775
0.057572283 0.14831364 0.52079999 1781801
0.065593593 0.14572933 0.52381825 1847077
0.071035631 0.14478825 0.52129996 1781031
0.1762744 0.14771917 0.52039999 1650729
0.18381453 0.14726639 0.52077144 1913129
-0.2900486 0.15723686 0.52709997 16618331
-0.28341123 0.15302335 0.52373332 16683610
-0.27295998 0.1509863 0.52209997 7231296
-0.26495484 0.15539034 0.52053332 2768183
-0.2005122 0.15778936 0.52709997 2176304
-0.1949278 0.15497777 0.52461421 2044717
-0.17387149 0.15566131 0.52587998 1979437
-0.14529184 0.15764825 0.52540004 1978926
-0.13382293 0.1541539 0.52475381 2110252
-0.12467743 0.15455145 0.5268389 1978922
-0.11470463 0.15619758 0.52869999 1848107
-0.10799595 0.15468869 0.52289999 1781546
0.023697197 0.15097491 0.52569997 1714722
0.035939306 0.15168437 0.52145994 1978916
0.056996163 0.15552972 0.52472728 1912617
0.065803722 0.15165438 0.52827501 1781288
0.074003689 0.15495174 0.52524287 1715238
0.082233697 0.15741521 0.52310002 1977640
0.17504145 0.15612608 0.52240002 1781801
0.18510085 0.15508439 0.52500826 1913389
0.19054434 0.15697113 0.52329999 1453351
-0.28482896 0.16605321 0.52558005 16553052
-0.27611905 0.1679292 0.52373999 9724993
-0.26815856 0.16386694 0.52454996 2702391
-0.20208697 0.16483158 0.52627999 1979181
-0.19612963 0.165354 0.52303845 1979181
-0.18564597 0.16878621 0.52307498 2044721
-0.17462561 0.16675048 0.52257997 2110768
-0.16763698 0.16602291 0.52415556 1913900
-0.15426002 0.16298114 0.52706665 1913648
-0.12395919 0.16341832 0.5263133 2109999
-0.115744 0.16557512 0.52526671 2044205
-0.10794203 0.165378 0.52294004 1978926
-0.095368184 0.16790682 0.52610004 1913132
-0.086038776 0.1680335 0.52383333 1847849
0.059195187 0.1603642 0.52459997 1847337
0.066732131 0.16449235 0.52404439 1847335
0.071838975 0.16737461 0.52759999 1978410
0.098093309 0.16956525 0.52329999 1847339
0.10500981 0.16840537 0.52130002 1584681
0.11483309 0.16450737 0.5254333 1716009
0.12451039 0.16893373 0.52169997 1716519
0.13433717 0.16659562 0.52209997 1715501
0.17519946 0.16274911 0.52340001 1781801
0.18337314 0.16604559 0.52373332 1650730
0.19526447 0.16436459 0.5263167 1651243
0.20369443 0.16456297 0.52341431 1913388
-0.28094426 0.17230803 0.52829999 16621159
-0.27464625 0.17341264 0.52784997 4341548
-0.2669628 0.17783304 0.52565998 2505777
-0.20195135 0.17165948 0.5248 2044205
-0.19480063 0.17462818 0.52690911 1979438
-0.18502308 0.17440443 0.52539164 2044975
-0.17536613 0.17128861 0.52127498 2110510
-0.16827406 0.1708599 0.52164996 2110511
-0.11224511 0.17334796 0.52409089 2110252
-0.10503485 0.17359827 0.52483332 1847595
-0.0958151 0.17375121 0.52484286 2110252
-0.087401137 0.17280185 0.52604997 1978924
0.03929266 0.1725942 0.52100003 1847848
0.045451865 0.17409874 0.52191669 1847336
0.066911295 0.17647149 0.52498573 1781547
0.071944863 0.17502874 0.52852499 1781290
0.09634871 0.17080572 0.52709997 1715751
0.10760169 0.17698307 0.52623338 1847080
0.11330372 0.17343396 0.52604997 1716008
0.12214501 0.17171514 0.524625 1782058
0.19650042 0.17223766 0.52262002 1650729
0.20170441 0.17176488 0.52419996 1979434
-0.29456395 0.18958154 0.52894998 16618849
-0.28571549 0.18806188 0.52239996 16553310
-0.2762588 0.18374957 0.52491665 7034174
-0.18609937 0.18261172 0.52704281 1979438
-0.1142348 0.18510859 0.52338338 2044972
-0.10957936 0.1842529 0.52430004 2044716
0.066035874 0.18126363 0.52411664 1716008
0.073949963 0.18252221 0.52547497 1650218
0.08508724 0.18455836 0.52614999 1584679
0.094069518 0.1809998 0.52829999 1716525
-0.30032894 0.19548878 0.52844995 16553310
-0.29372373 0.19475868 0.52317995 16553311
-0.20137796 0.19488469 0.52021426 1913902
-0.19770931 0.19592822 0.52048331 1913645
0.11590345 0.19826177 0.52503997 1518888
0.12152892 0.19923045 0.52509999 1584939
-0.31235498 0.20639117 0.52829999 16553571
-0.30505896 0.20679811 0.52532852 16554087
-0.29629198 0.2049046 0.52262861 16098170
-0.27426821 0.20832269 0.52059996 2243640
-0.2664755 0.20882358 0.52174997 2308917
-0.23292123 0.20387304 0.52709997 2177329
-0.2240341 0.20514479 0.52476251 1979955
-0.21441396 0.20559049 0.52266252 2044973
-0.20622152 0.20483504 0.5212273 2110767
-0.19875975 0.20141973 0.52020001 2176304
0.11539701 0.20532608 0.52509993 1715752
0.12150101 0.20529889 0.52509999 1584424
-0.31395295 0.21375856 0.52390003 16554344
-0.30545929 0.21477771 0.52485001 16303270
-0.28552887 0.21559507 0.52295452 15659757
-0.27584615 0.21464953 0.52611536 3230277
-0.26644343 0.21630275 0.52527499 2439733
-0.22154856 0.21201834 0.52899998 2111537
-0.21354689 0.21505868 0.52861422 1979695
-0.20578454 0.21455172 0.52304286 1979438
-0.19338018 0.21788348 0.52214998 2111023
-0.18445618 0.21571037 0.52214289 2110509
-0.17956479 0.21996729 0.52399999 2241835
0.11535457 0.21502905 0.52509993 1584680
0.12145684 0.21500228 0.52509999 1518888
-0.30217901 0.22386815 0.52340001 16711675
-0.26063591 0.2221217 0.52459997 2439733
-0.24309047 0.22515695 0.52579999 2308660
-0.23547256 0.22363953 0.52499998 1783086
-0.22562014 0.22553349 0.52643329 1914416
-0.21966131 0.22849523 0.52479994 2044720
-0.20248939 0.22111404 0.52709997 1979695
-0.19506995 0.22246708 0.52770001 2110767
-0.18563986 0.22509104 0.52759999 2044975
-0.17797491 0.22558445 0.523 2044973
-0.162164 0.22760379 0.52462494 1913389
-0.15690315 0.22667794 0.52517498 1782829
-0.14847472 0.22863783 0.52125001 1519659
0.11532841 0.22108968 0.52509999 1519398
0.1202096 0.22106868 0.52509999 1519395
-0.21966688 0.23093918 0.52485001 2176305
-0.18465844 0.23331633 0.52636999 1848110
-0.17507389 0.23388597 0.525325 1847851
-0.16556963 0.23202224 0.52590001 1716524
-0.15499441 0.23249932 0.52789998 1716779
-0.14966887 0.23483817 0.5298 1519919
-0.1321184 0.23208411 0.52335 1913901
-0.30861241 0.24748181 0.52209997 16711675
-0.22176197 0.2428748 0.52709997 1783091
-0.21731776 0.24745169 0.52452493 1651758
-0.12063464 0.2480479 0.52129996 1519142
-0.11087311 0.2478676 0.52079999 1781284
-0.10898136 0.24907152 0.52329999 1649958
-0.31172311 0.25487325 0.52736664 16711675
-0.30460826 0.2558305 0.52291429 16711675
-0.29559541 0.25617409 0.52253747 16711675
-0.28988272 0.25645947 0.52309996 16711675
-0.21461286 0.25306848 0.52463329 1847594
-0.20508365 0.25420436 0.52601665 1848103
-0.19604345 0.2516644 0.52990001 1717293
-0.12244515 0.25537467 0.52403748 1584676
-0.11473549 0.25575218 0.52365714 1649956
-0.10668401 0.25450653 0.52702504 1584164
-0.096758969 0.25538725 0.52822 1584421
-0.080593437 0.25889796 0.52829999 1584165
-0.31132782 0.26064429 0.52670002 16711675
-0.30860919 0.26200458 0.52209997 16711675
-0.20382538 0.26185378 0.52499998 1782061
-0.1076268 0.2614516 0.52883333 1649446
-0.096259758 0.26550239 0.52709997 1780771
-0.078030929 0.26346558 0.52769995 1584166
0.168148 0.26566318 0.52829999 1583904
0.17499588 0.26603171 0.52779996 1583646
0.16976045 0.27093673 0.52829999 1321244
0.17465842 0.27091864 0.52829999 1518367
0.25651398 -0.10386971 0.53501427 1913905
0.26443726 -0.10540159 0.53658748 1717040
0.27113184 -0.10205124 0.5388 1650480
0.29575595 -0.10498326 0.53507501 2177590
0.30644959 -0.10615724 0.53484285 10531759
0.31493089 -0.10380962 0.53457266 16383985
0.32530642 -0.10407082 0.53718996 16514755
0.33333901 -0.10516726 0.53497499 16448950
0.34039143 -0.10924843 0.53829998 16382383
0.25591707 -0.095145777 0.53653073 1848111
0.26427409 -0.09384691 0.53279281 1716782
0.27360091 -0.094965547 0.53655553 1717038
0.29724577 -0.09560699 0.53532851 1979441
0.30582216 -0.092777751 0.53481251 2373427
0.31396857 -0.0966186 0.53557497 12962220
0.32666153 -0.099069506 0.53717494 16515004
0.33264667 -0.097031474 0.53516668 16513969
0.25435346 -0.089786768 0.53999996 2044718
0.26592222 -0.088193446 0.53633744 1651248
0.27471524 -0.088203125 0.53696001 1848624
0.30628884 -0.086122088 0.53650832 2110770
0.31474942 -0.086238593 0.53477502 10197880
0.24723747 -0.071573555 0.53527999 1913902
0.25571439 -0.073567405 0.53544003 1716525
0.26444817 -0.07364364 0.53264999 1978925
0.27488935 -0.073160499 0.53385001 1847857
0.28145701 -0.072953463 0.537 1848115
0.29827112 -0.071535319 0.53609997 1585450
0.30138326 -0.07697732 0.53507501 1913391
0.22755118 -0.064581491 0.53538328 1913131
0.23547034 -0.067995995 0.53429997 1913388
0.24252881 -0.068449199 0.53033334 1979693
0.28701237 -0.069031991 0.53579998 1782320
0.29407504 -0.068935551 0.5352 1782316
0.3466163 -0.065245941 0.53627497 16373654
0.078828976 -0.052436784 0.53999996 3749166
0.081968077 -0.054538488 0.53574997 7170655
0.22346525 -0.056142073 0.53501999 2043946
0.24796067 -0.05371549 0.53139997 1716523
0.25544074 -0.053641438 0.53578001 1782318
0.26594126 -0.054095749 0.53555 1650989
0.27584276 -0.053574141 0.53483331 1650993
0.28472549 -0.053368587 0.53376001 1519920
0.29180613 -0.053049047 0.53396666 1716527
0.33940184 -0.052428193 0.5327 16437392
0.34459481 -0.054574281 0.53475714 16568722
0.35152924 -0.056901757 0.53999996 16503444
-0.070149094 -0.042009987 0.53649998 1979693
-0.064538509 -0.043546952 0.53758568 2176047
-0.056415204 -0.042932 0.53731668 2110768
0.075596593 -0.045183662 0.53651667 4347716
0.22719485 -0.047585905 0.53154999 1978924
0.23182377 -0.04627654 0.5309 1978925
0.27676958 -0.046071399 0.53722662 1782318
0.28270882 -0.046246435 0.53179997 1651246
0.33915141 -0.048678108 0.5323 16765839
0.34527993 -0.048669085 0.53227496 16567438
0.35533559 -0.048689414 0.53259999 16566408
0.36260772 -0.046254907 0.53303331 16433284
-0.081933223 -0.03448686 0.53696662 1913131
-0.075388528 -0.037295569 0.5350666 2044717
-0.069746748 -0.039264526 0.5334 2176302
0.073162451 -0.036197294 0.53399998 1979947
0.27825087 -0.038644541 0.53782499 1913905
0.28377706 -0.035845049 0.53490001 1782320
0.29495642 -0.031666745 0.53666663 1650735
-0.23558566 -0.021463055 0.53109998 2439476
-0.085143588 -0.025608666 0.53602499 1978154
0.027868971 -0.025570534 0.53394997 6384739
0.034294929 -0.023903664 0.53631002 1450783
0.041654214 -0.023938874 0.53715998 1319706
0.068051852 -0.025569405 0.534675 1386276
0.070058115 -0.029130556 0.5309 1649447
0.19768828 -0.022804353 0.53139997 1913385
0.20438699 -0.021744113 0.53604996 1782053
0.25672507 -0.022297965 0.5308333 1912618
0.26429522 -0.023807401 0.53279084 1716009
0.27390233 -0.023151573 0.53413749 1651243
0.28519598 -0.022947961 0.53687501 1716270
0.29614854 -0.024592441 0.53596359 1585197
-0.22607933 -0.016574539 0.53259999 2242351
-0.095051534 -0.013429205 0.53536665 1846825
-0.085256867 -0.016743353 0.53406668 1978411
0.032588422 -0.017091161 0.5340625 3358266
0.041998096 -0.019429939 0.53824997 1121819
0.068732657 -0.019484639 0.53999996 1188894
0.073719881 -0.016306942 0.53578001 1517345
0.20555514 -0.019114003 0.53264999 1912620
0.2559073 -0.015569965 0.5337916 1847337
0.26034373 -0.015302894 0.53154999 1847337
0.28797826 -0.015295501 0.53172499 1585452
0.29604656 -0.015767017 0.53391111 1585195
0.30136058 -0.016478354 0.53049999 1781803
0.36651009 -0.013066625 0.53341997 16560504
0.37443456 -0.012663245 0.53445709 16560249
0.38055393 -0.011613609 0.53509998 16757885
-0.10188617 -0.0062475856 0.53711998 1912619
-0.097225003 -0.0042090858 0.53353333 1781291
0.030210538 -0.0091853142 0.53099996 8753027
0.24840234 -0.0066432273 0.53219998 1716523
0.25570926 -0.0062697516 0.53553337 1715752
0.26037225 -0.0091094654 0.5316 1519144
0.35860568 -0.0035236988 0.53285003 16625010
0.36451638 -0.0071435301 0.53556001 16559474
0.37589493 -0.0065095671 0.53596473 16562046
0.38124719 -0.0041354676 0.53259999 16777199
-0.085452288 0.0045779916 0.533925 1912363
0.35547301 0.0052760402 0.53314 14324321
0.36269173 0.0020744323 0.53799999 16558449
0.3774429 0.0023075254 0.53491992 16707532
0.38357824 0.0070628896 0.53759998 16711674
-0.092247404 0.015972219 0.53846663 1847338
-0.087909333 0.013294232 0.53249997 1978665
0.038237084 0.012208907 0.53869998 1187608
0.2348824 0.016012209 0.53385001 1584678
0.32616416 0.014426804 0.53241664 1650993
0.3343648 0.013965568 0.53497857 1650991
0.34401673 0.014066476 0.53661531 1979184
0.35413745 0.012077249 0.538225 5326905
0.38411179 0.010792041 0.53659999 16711675
-0.092896596 0.023505187 0.53740001 1781548
0.082691967 0.026621586 0.53619999 2501925
0.23272735 0.022067027 0.53569996 1519144
0.24155319 0.028328452 0.53610003 1781547
0.32867911 0.020568088 0.53119999 1585200
0.33472079 0.02278397 0.53252494 1781550
0.34386483 0.024459139 0.53579998 1978670
0.35431993 0.028152637 0.53474998 2176817
0.36509231 0.028313696 0.53786665 11518135
0.37375671 0.028403115 0.53960001 16646138
0.38649517 0.023586256 0.53597146 16711675
0.39399362 0.028417474 0.5399 16711675
-0.23322019 0.034762442 0.53974998 2111025
-0.2248237 0.03452263 0.53684211 2045231
-0.21945289 0.035821348 0.53639996 1848622
0.045598093 0.038596522 0.53603333 924435
0.077460811 0.036653996 0.53739995 924435
0.080462374 0.034652177 0.53392506 857614
0.20209506 0.037968259 0.53009999 1781033
0.22640848 0.035057306 0.5364334 1781030
0.23636305 0.038507793 0.53839999 1716011
0.24342506 0.034672447 0.53331667 1650215
0.25214815 0.038047161 0.53240001 1650473
0.35555854 0.030961841 0.53179997 2242868
0.36578438 0.034386113 0.53524995 13229267
0.37343436 0.034794189 0.53769994 16383994
0.38536048 0.038341381 0.53836 16580603
0.39237007 0.032756429 0.53700006 16580603
-0.29236871 0.04842199 0.5395 13369334
-0.28858894 0.048416644 0.53934997 13697017
-0.23140371 0.041863505 0.53939998 2110511
-0.22605726 0.041631538 0.53895003 2110767
0.047606662 0.040688649 0.53049999 1055764
0.055682987 0.043010626 0.53288573 989972
0.061715383 0.044608474 0.53780001 1055509
0.077064313 0.044261169 0.5352143 924182
0.080068789 0.044472411 0.53137499 661010
0.2056962 0.041288406 0.53310001 1715235
0.21415727 0.041859712 0.53268749 1781287
0.22414488 0.041679215 0.53595001 1716005
0.23408353 0.040843189 0.53604996 1453863
0.2442489 0.041672587 0.53274441 1716008
0.25199959 0.041746214 0.53209996 1650215
0.36675012 0.041378047 0.53233999 11717315
0.37542555 0.041914228 0.53385711 16383994
0.38369262 0.041283052 0.53602499 16580603
-0.2923061 0.052169416 0.53939998 13500405
-0.28776106 0.051910065 0.53920001 13631476
0.056725513 0.052270297 0.53437495 1121300
0.06418594 0.057240009 0.53407502 990230
0.075337417 0.057272453 0.53678 1054998
0.08147382 0.055221487 0.53369999 661264
-0.2030666 0.068702318 0.53899997 2044975
-0.19817477 0.068746038 0.53920001 2044718
0.076176606 0.062568031 0.5333333 989716
0.08263544 0.064487398 0.53206998 923152
0.26775897 0.066468194 0.53184998 1650473
0.27434367 0.066499986 0.53417999 1650474
0.28304917 0.066098616 0.53412497 1584682
-0.21074051 0.075041041 0.53964996 2045488
-0.20317863 0.074110486 0.53283328 1913647
-0.19517769 0.074498206 0.53535622 2044975
-0.13343118 0.077140898 0.53474998 2110253
0.36600554 0.079909332 0.53200001 1585449
0.374926 0.077492774 0.53240001 1651504
0.38255274 0.078771651 0.53269994 8693149
-0.20290454 0.081211321 0.53869998 2110768
-0.19794178 0.081232503 0.53869998 2110511
-0.13406752 0.085071884 0.53743744 2044974
-0.12922488 0.085605584 0.53293329 1979695
0.36538291 0.08280018 0.53469998 1651241
0.37487674 0.082695656 0.5341 1782831
0.3824887 0.082181595 0.53608328 3363147
-0.15269424 0.098766558 0.53740001 2044716
-0.14562881 0.09669783 0.53736663 2044718
-0.13535084 0.093386278 0.53490001 2045231
-0.12893116 0.090390064 0.53179997 1979695
-0.10151459 0.097775772 0.5309 1715751
-0.095328398 0.097797304 0.5309 1715238
-0.27585456 0.10738545 0.53576666 3095606
-0.26020581 0.10518284 0.53469998 2505267
-0.25740197 0.10773776 0.53501999 2439475
-0.16155669 0.10761899 0.53805 1913645
-0.15527852 0.1032093 0.5345875 1979439
-0.10261947 0.10261601 0.53461671 1584676
-0.0955135 0.1039047 0.53501421 1650216
-0.089407973 0.1031078 0.53259999 1715751
-0.28348312 0.11853317 0.5395 11954234
-0.27639303 0.11587229 0.53609997 3029812
-0.25218332 0.11609942 0.5334 2111281
-0.15689008 0.11199564 0.53495002 2175789
0.066158667 0.11769944 0.53052497 1846819
0.076105461 0.11770543 0.53064996 1781283
0.084805846 0.11770963 0.53076667 1781284
0.29574382 0.11667045 0.53248888 1650731
0.30472976 0.11765582 0.53460002 1715754
0.31541967 0.11669431 0.53600001 1715501
0.32531965 0.11666977 0.53600001 1519146
0.33151034 0.11665624 0.53600001 1453865
-0.30101344 0.12804082 0.53780001 16485202
-0.29527313 0.12895289 0.53633749 16551507
-0.28514832 0.12614763 0.53819996 14253127
-0.27726108 0.1241095 0.53877133 3029554
-0.26679784 0.12648946 0.53584999 2768182
-0.24197058 0.12610176 0.53259999 2045228
-0.23852576 0.12904379 0.53039998 2110249
-0.14346868 0.12851498 0.53604996 1978925
-0.095313273 0.12764204 0.53144997 1650730
-0.074746884 0.12856062 0.53493333 2044458
0.037589751 0.12145114 0.53049999 1714722
0.066166312 0.12019796 0.53062499 1781283
0.075858355 0.12246472 0.5311625 1781543
0.083823875 0.12256788 0.53250992 1715494
0.30607805 0.12147661 0.53395998 1781544
0.31622699 0.12332941 0.53600007 1650217
0.3253026 0.12413649 0.53600013 1519401
0.33149016 0.12661168 0.53600001 1716012
-0.30237803 0.13588862 0.53446668 16617052
-0.29438415 0.13118599 0.53033328 16551507
-0.28415433 0.1316268 0.53332859 13595969
-0.27744031 0.13581553 0.53470999 3815463
-0.26759082 0.13373972 0.53999996 2571832
-0.2520802 0.13464622 0.5334 2439474
-0.24233432 0.13501343 0.53458005 2307119
-0.23905914 0.13390556 0.53601992 2241581
-0.16141045 0.13892195 0.53814995 1978925
-0.15816015 0.13937059 0.53979999 1913902
-0.1404153 0.13167617 0.53869998 2044718
-0.13410126 0.13543092 0.53638572 2044717
-0.12904222 0.13657117 0.53314996 1978923
-0.072873451 0.13306735 0.53970003 1978409
-0.067441337 0.13274977 0.53662497 1912871
-0.053926967 0.1321778 0.53925002 1583391
-0.044456687 0.13528885 0.53489995 1648414
-0.036743451 0.13597983 0.53526998 1648670
-0.024856934 0.13587114 0.53797144 1385760
-0.016660932 0.13577904 0.53334999 1123103
0.31785852 0.13037613 0.53600001 1584940
0.3261123 0.13118567 0.53600001 1584424
0.33271962 0.13158642 0.53600001 1584422
-0.30343366 0.14115185 0.53565001 16617052
-0.29506135 0.14628263 0.53609997 16617561
-0.28488851 0.14584146 0.53544998 14977622
-0.27775314 0.14282951 0.53680003 3291434
-0.20083715 0.14755519 0.53420001 1979695
-0.19504158 0.14506349 0.53399998 1979695
-0.1838138 0.14286359 0.53476 2110509
-0.17424893 0.14548974 0.53510833 2110255
-0.16458479 0.14406195 0.53323996 2044973
-0.15507397 0.14397585 0.53361869 1979182
-0.14465164 0.14453085 0.53378421 2044718
-0.1355304 0.14183716 0.53446668 2175531
-0.12910664 0.14038013 0.53350002 2109996
-0.093752526 0.14255346 0.53476661 1584680
-0.083552837 0.14453663 0.53584999 1847852
-0.074591406 0.14458627 0.53437501 1978663
-0.066013291 0.1451399 0.53353995 1781543
-0.055986546 0.14489453 0.53525001 1320731
-0.048405141 0.14089189 0.53415 1254940
-0.032979552 0.14169504 0.53393334 1451295
-0.026031116 0.14539392 0.53686661 1385756
-0.018810987 0.14155453 0.53329998 1385501
0.032647632 0.14763469 0.53130001 1846054
-0.29471961 0.15728424 0.53556663 16617562
-0.28717369 0.15308022 0.53519994 16618332
-0.27731201 0.15093167 0.53039998 7034432
-0.20468928 0.15521292 0.53509998 2044717
-0.17398168 0.15333183 0.53398567 2110509
-0.1650321 0.15136266 0.53806001 1979695
-0.15343429 0.15477924 0.5381667 2175790
-0.14540073 0.15395233 0.53366005 2109996
-0.11344127 0.15310828 0.53009999 1913388
-0.029540854 0.15032588 0.53219998 1582621
0.027682919 0.15263854 0.53149998 1780766
0.03264387 0.15134174 0.53130001 1715234
0.065818034 0.15678364 0.53178889 1846823
-0.29607266 0.16623491 0.53513336 16683612
-0.27058959 0.16685244 0.5341 2571573
-0.21234173 0.166206 0.5387333 1979437
-0.20792417 0.16459058 0.53479999 2044974
-0.17122568 0.16261803 0.53693336 1782573
-0.16431761 0.1669482 0.53476667 1979438
-0.15700005 0.16274333 0.53637499 1979182
0.067528911 0.16147158 0.53232497 1912616
0.074087709 0.16342001 0.53380001 1846567
0.084100112 0.1641091 0.535025 1781032
0.091078922 0.16875818 0.53215003 1781033
0.11754418 0.16775581 0.53125 1715751
0.12083832 0.16797857 0.5339666 1715752
0.18602392 0.16373797 0.53034997 1782315
0.19339314 0.16629443 0.53122723 1716779
0.20218197 0.16932279 0.53174996 1650729
-0.29170835 0.17402725 0.53619999 16553052
-0.28546226 0.17516585 0.53403997 14517327
-0.27398923 0.17553614 0.53322721 2833203
-0.26353917 0.1788874 0.53484994 2571826
-0.25840482 0.17775062 0.53689998 2505520
-0.16293068 0.17249325 0.53398573 1979438
-0.15606862 0.1736353 0.53450006 1848623
-0.09466102 0.17362966 0.53315997 1978924
0.076716475 0.17497683 0.53592503 1846826
0.094349712 0.17393646 0.53672498 1649959
0.10492978 0.17621034 0.53336251 1716265
0.11555342 0.17313886 0.53073329 1650471
0.12597406 0.17011058 0.53294998 1715748
0.19709742 0.17168622 0.53135002 1584935
0.20209216 0.17172325 0.53154999 1650983
-0.28476807 0.18540756 0.53561664 10445108
-0.27757952 0.18145563 0.53355002 3095086
-0.26356417 0.18511358 0.53497493 2506034
-0.25840285 0.18398318 0.53697497 2308912
-0.19358936 0.18142484 0.53184998 1848107
-0.18953827 0.18603694 0.5309 2110513
0.076697245 0.18259424 0.53423995 1716009
0.083972909 0.18568176 0.53462493 1650473
0.091481775 0.18324007 0.53479999 1453604
0.10437588 0.18144199 0.53694999 1715751
-0.30514887 0.19313329 0.53636253 16553311
-0.29642031 0.19068348 0.53893334 16487775
-0.26298779 0.19157061 0.53538001 2374708
-0.25836945 0.19143949 0.537 2374708
-0.31369612 0.20560467 0.5347333 16487779
-0.30689818 0.2043626 0.53316003 16553569
-0.24277478 0.20893729 0.53549999 2111022
-0.2336321 0.20803787 0.53150004 1914160
-0.31386745 0.21723457 0.5309 16620139
-0.26488739 0.2149512 0.53388339 2308661
-0.25485432 0.21405798 0.53764999 2374454
-0.2495361 0.21233602 0.5395 2373681
-0.23385844 0.21555683 0.53491247 1914159
-0.22639686 0.21602158 0.53290004 1914417
-0.21804814 0.21710142 0.53240001 1782829
-0.26660722 0.22402075 0.53610003 2505527
-0.24398555 0.22536118 0.53637499 2111537
-0.23526679 0.22229968 0.53461426 1914415
-0.22445749 0.22442329 0.53403574 1914416
-0.21668562 0.22319087 0.53457999 1979693
-0.20514783 0.22601929 0.53408003 1979438
-0.19426233 0.22792557 0.53289998 1979695
-0.22249003 0.23586084 0.53602505 1979182
-0.20141648 0.2341277 0.53735 1848364
-0.19481368 0.23459344 0.53346366 1848110
-0.16563283 0.23756507 0.53395998 1848106
-0.15772408 0.23585151 0.53219998 1716521
-0.32371122 0.24963361 0.53714997 16711675
-0.22464186 0.24366228 0.53780001 1979695
-0.21785671 0.2491103 0.53343338 1717551
-0.19499066 0.24198106 0.536825 1848110
-0.18386199 0.2410768 0.53330004 1717034
-0.17506009 0.24260269 0.53652501 1848108
-0.16477215 0.24141924 0.53923339 2110510
-0.15849206 0.24137986 0.53904998 1848107
-0.32391459 0.254471 0.53789997 16711675
-0.3176544 0.2552388 0.53323334 16711675
-0.21270989 0.25313535 0.53321427 1913898
-0.20481205 0.25350383 0.53475004 1782568
-0.19373374 0.25228983 0.53428 1716779
-0.18565008 0.25691456 0.53662002 1782059
-0.1786443 0.25735182 0.53639996 1913900
-0.10256253 0.25798327 0.53417498 1584165
-0.094781294 0.25825924 0.53215003 1715495
-0.088244408 0.25974405 0.53009999 1649960
-0.10327478 0.26587513 0.53424001 1714721
-0.094978593 0.26616314 0.53416359 1583907
-0.084901378 0.26636764 0.5344727 1649702
-0.078504078 0.26506618 0.5309 1649960
-0.086218752 0.27103147 0.53309995 1715240
0.264202 -0.13380367 0.54369384 1914162
0.27210435 -0.13511774 0.546 1914161
0.30743515 -0.13375469 0.54611111 16187386
0.31480241 -0.13383357 0.54359287 16580603
0.32500121 -0.13467482 0.54491246 16580603
0.33391246 -0.13468546 0.5455364 16580603
0.25839472 -0.1269981 0.54889995 1914159
0.26403344 -0.12739262 0.54851997 1914159
0.27129254 -0.12960877 0.54939997 2045999
0.30722561 -0.12478188 0.54568332 11452349
0.3150419 -0.12435679 0.54395622 16515066
0.32523847 -0.12438743 0.54420626 16580603
0.33511052 -0.12432976 0.54532307 16515055
0.34119248 -0.12355897 0.54626662 16515014
0.26631555 -0.1130034 0.54513329 1717296
0.2745848 -0.11386818 0.54741114 1979441
0.30726057 -0.11591542 0.54568887 5137760
0.3153674 -0.11490921 0.54447138 16318458
0.32493308 -0.11542923 0.54365832 16515063
0.33517495 -0.11420904 0.543975 16515016
0.34159684 -0.11550511 0.5442 16449463
0.16705108 -0.10185727 0.54883331 2176044
0.17484574 -0.10191276 0.54930001 2110249
0.25743058 -0.10749841 0.54489994 1914163
0.26987436 -0.10756718 0.5413 1520173
0.2765497 -0.1054137 0.54541665 1913648
0.28163299 -0.10511839 0.54837501 1848112
0.29522032 -0.10331491 0.54584998 1717297
0.31786358 -0.10967971 0.54014999 16515066
0.32293868 -0.10969674 0.54030001 16449522
0.33166093 -0.10659537 0.54163331 16580543
0.16604991 -0.095289044 0.54786426 2110510
0.1743459 -0.095222838 0.54764998 2175791
0.20453736 -0.095541105 0.54849225 2110511
0.21260934 -0.095607497 0.54875451 2110766
0.25466982 -0.094618149 0.54604995 1979437
0.27990341 -0.094947115 0.5413 1848624
0.28594029 -0.094994254 0.54646665 1848368
0.29751891 -0.096931741 0.54709995 1848112
0.30350783 -0.091825388 0.5456 1913647
0.31819209 -0.09508758 0.54276663 16381386
0.32398641 -0.096124664 0.54514998 16645822
0.33433816 -0.098277971 0.54667497 16580537
0.25794527 -0.086478233 0.54374546 1782320
0.26509026 -0.08335837 0.54444999 1782321
0.2748144 -0.082377464 0.54280913 1848370
0.28363067 -0.084573306 0.54634285 1782835
0.30574426 -0.085090302 0.54581666 1848111
0.31787291 -0.089949831 0.54219997 8880235
0.35745016 -0.083604217 0.54785001 16440220
0.11381505 -0.075773783 0.54447502 2175531
0.12017988 -0.075761728 0.54449999 2175272
0.16797751 -0.072188288 0.54734999 1978668
0.17224382 -0.072365157 0.54879999 2044717
0.18025196 -0.071202181 0.5499 2044456
0.23483451 -0.071323112 0.54565001 2110254
0.24487522 -0.074323162 0.54427999 2044973
0.25446311 -0.07703919 0.54458332 1979183
0.26457235 -0.077618107 0.54299998 1847597
0.27447143 -0.07755395 0.54277503 1848625
0.28540206 -0.076193169 0.54405993 1913907
0.29449862 -0.073714741 0.5458833 1716525
0.30366522 -0.076634496 0.54579997 1650988
0.35680819 -0.075587027 0.54814446 16439447
0.36171848 -0.074783199 0.54694998 16504468
0.16822176 -0.067926317 0.54399997 2044203
0.17344156 -0.067197375 0.5485 1716264
0.18025975 -0.068632893 0.5499 2044456
0.22578515 -0.064188026 0.54606247 2109996
0.35569227 -0.065990292 0.54254997 16372628
0.36296192 -0.065398477 0.54468328 16502672
-0.073843144 -0.054073445 0.54914999 2110254
-0.065554507 -0.054288611 0.54860008 2176046
-0.057590347 -0.051978733 0.54855001 2241582
0.024619566 -0.052996196 0.54532498 1781548
0.069907248 -0.050783087 0.54939997 2044203
0.075267121 -0.05337891 0.54631251 2241070
0.081172273 -0.058283702 0.54734999 2504240
0.22395554 -0.055769119 0.54462498 2109994
0.25805607 -0.051260889 0.54495001 1913389
0.26440099 -0.051259704 0.54508752 1913131
0.27031586 -0.051175114 0.54435003 1913390
0.35635433 -0.055495352 0.54259163 16436368
0.36465633 -0.056031033 0.54375833 16501387
-0.081459261 -0.040105928 0.54499996 1978925
-0.074863508 -0.044329315 0.5456875 1979179
-0.065034315 -0.047909167 0.54627496 2241325
-0.053901039 -0.045762759 0.54493994 2111024
0.027597101 -0.043565091 0.54503334 1781034
0.06733761 -0.043183353 0.54647142 1781547
0.071542613 -0.046302386 0.54224998 2043950
0.27369392 -0.044912878 0.54537272 1913645
-0.084056236 -0.037566826 0.54530001 1978925
0.028480547 -0.035092648 0.54570001 1715495
0.067678265 -0.035945117 0.54439998 1649704
0.27652454 -0.034994733 0.54581672 1651247
0.28400984 -0.033125721 0.54272854 1782065
0.29127979 -0.031948257 0.5413 1912881
0.033466738 -0.028138861 0.54349995 1517346
0.045683481 -0.025420848 0.54457498 1385500
0.066727892 -0.026030745 0.54432499 1386276
0.2671144 -0.029544914 0.54285002 1781802
0.27555007 -0.028704414 0.54304999 1650987
0.28485653 -0.028281802 0.54330003 1847341
0.29335329 -0.02727207 0.54224998 1847087
-0.10367098 -0.012959823 0.54386002 1781801
-0.097048528 -0.016285883 0.54669994 1978665
0.035498165 -0.015014539 0.54317993 1187869
0.043973107 -0.018036179 0.54710001 1253405
0.069751918 -0.017198628 0.54799998 1319712
0.075859398 -0.01328312 0.54579997 1188638
0.25835919 -0.011779007 0.5402 1978415
-0.11043204 -0.0056167869 0.54974997 1847597
-0.10559693 -0.0042891214 0.54461664 1912877
0.034247577 -0.0059679528 0.54220003 1055770
0.0784982 -0.0094425818 0.54629999 860188
0.081150219 -0.004812601 0.54522002 4477770
0.25743988 -0.0080109285 0.5408833 1716010
0.36867088 -0.0029480024 0.5413 16493681
0.37515178 -0.002771832 0.54265708 16493682
-0.1037105 0.00082604249 0.54809999 1912874
-0.095016718 0.0023709713 0.54665995 1781288
-0.088669732 0.0059069819 0.54219997 1847341
0.037824292 0.0038035717 0.54483336 1187610
0.042703286 0.0085441507 0.54729998 990743
0.08280877 0.00082864892 0.54939997 5792088
0.36581972 0.0050234203 0.5426333 16557934
0.37602204 0.0013426921 0.54653996 16624756
0.38120544 0.0033743058 0.5467 16363124
-0.10347746 0.018782832 0.54689997 1781797
-0.09614785 0.014886558 0.54511249 1847338
0.042642243 0.014947907 0.54650003 990484
0.34792745 0.015944889 0.54210001 1847341
0.35448831 0.016705234 0.54338568 2241582
0.3634468 0.015083882 0.54738003 6704436
0.3868798 0.015890853 0.54046667 16711675
-0.24436192 0.026482143 0.54599094 2111539
-0.23475587 0.026184771 0.54442996 2045745
-0.2266179 0.028210739 0.54412001 1914157
-0.10488824 0.022658266 0.54760003 1781801
-0.096987151 0.023264002 0.54346001 1716009
0.043896347 0.021364095 0.54619998 1187610
0.077121198 0.028376572 0.54567498 990230
0.082214311 0.024533268 0.54554999 2305060
0.2377982 0.025775453 0.54353327 1650474
0.24469937 0.024357334 0.54307145 1781547
0.25218678 0.025450572 0.54339999 1715755
0.34795642 0.024767265 0.54215002 1978670
0.35494131 0.023851667 0.54440999 2045231
0.36504933 0.024511024 0.54608887 5660757
0.37436935 0.025244731 0.54373336 16646135
0.38492963 0.025710221 0.5439769 16711675
0.39189029 0.028538404 0.54219997 16711675
-0.24293958 0.033994745 0.54769999 2045745
-0.23754206 0.035030857 0.54397494 1979952
-0.2207921 0.035181161 0.54579997 2045231
0.046218429 0.03572239 0.54339999 924181
0.055198427 0.037882097 0.54396248 989972
0.065965578 0.037528388 0.54508883 924437
0.074265294 0.034477189 0.54355454 990229
0.22707862 0.038853031 0.54294997 1846824
0.23569301 0.035085581 0.54371995 1715751
0.24033518 0.033686589 0.54173332 1715752
0.37410021 0.030938935 0.54009998 16580601
0.38463616 0.033416145 0.54367 16580603
0.39192632 0.033691935 0.54400003 16580603
-0.29437712 0.046092331 0.54582852 13631480
-0.28712574 0.047750548 0.54595 14286844
-0.24241611 0.043050617 0.54939997 2111281
-0.23497868 0.046035632 0.54581112 2044975
-0.22621508 0.045271486 0.54481661 2110767
0.066021129 0.045603972 0.54341543 990230
0.073307812 0.045867667 0.54278886 989975
-0.30156344 0.052917264 0.54724997 13434871
-0.29505977 0.055035543 0.54541999 13565943
-0.28594908 0.054113694 0.54611427 14483450
0.066084281 0.054108627 0.54543 1055507
0.075189307 0.054670092 0.54370904 1055509
-0.21251833 0.068469942 0.54734999 2045489
-0.20557557 0.067226395 0.54232496 2044975
-0.19672005 0.068294607 0.54551667 1979181
-0.21447404 0.075915538 0.54597497 1979438
-0.19286734 0.075456217 0.54394001 2044973
-0.18651962 0.077791311 0.54646665 2045231
-0.1751568 0.077782944 0.54904997 2110766
-0.14090939 0.077959053 0.54939997 2111283
-0.13946421 0.079704717 0.5438 2044716
-0.21725771 0.080296688 0.5499 2175789
-0.20458536 0.083935149 0.54546666 2110768
-0.19459698 0.0837029 0.54525715 1979439
-0.18520468 0.08261022 0.54739225 1979439
-0.17505114 0.082863994 0.54878336 2045231
-0.16540612 0.084573425 0.54964662 2110254
-0.15620622 0.086718522 0.54954284 2044461
-0.14564724 0.088004164 0.54816669 1978923
-0.13931896 0.085974373 0.54332501 1979181
-0.16221 0.091625459 0.5498333 1979438
-0.1554977 0.094749391 0.54774374 2044716
-0.14554891 0.092524901 0.54471111 1913901
-0.13890323 0.09205959 0.54179996 2176304
-0.29564956 0.10712895 0.54743332 16617043
-0.28642306 0.10789702 0.5426333 13465407
-0.16459499 0.10581753 0.54558003 2044719
-0.2957018 0.11430293 0.54772723 16617045
-0.28684476 0.11520702 0.54348892 13465155
-0.17130958 0.11113416 0.54939997 1848109
-0.16667445 0.11202344 0.54533333 1913645
-0.31087589 0.12789099 0.54793328 16485205
-0.3032698 0.12574342 0.54403746 16550997
-0.2956591 0.12367422 0.54438186 16551508
-0.28994554 0.12614319 0.54009998 16617298
-0.27556375 0.12826544 0.54345 2767155
-0.24299715 0.12899898 0.54399997 1848105
-0.15255775 0.12713143 0.54629993 2176049
-0.30769753 0.13245744 0.54236668 16617304
-0.27658245 0.13416784 0.54525554 2636594
-0.26839134 0.13794598 0.5467 2374964
-0.25269526 0.13699056 0.54259998 2307635
-0.24586663 0.13920815 0.5413 2307377
-0.17324738 0.13886537 0.54799998 2110511
-0.16487087 0.13773017 0.54338747 1979438
-0.15408908 0.13638511 0.54427856 1913645
-0.14619814 0.13589877 0.544025 2044462
-0.1387926 0.13632733 0.54219997 1913133
-0.095723584 0.13419172 0.54804999 1716781
-0.084989026 0.13085724 0.54462498 1978667
-0.074575581 0.13653891 0.54486001 1912872
-0.064692907 0.13739902 0.54512495 1649446
-0.050458081 0.13300914 0.54259998 1714205
-0.04796049 0.13694638 0.54315001 1648158
-0.031393349 0.13800639 0.54219997 1517340
-0.027588576 0.13801333 0.54219997 1517340
-0.30538395 0.14849384 0.54280001 16485466
-0.28140682 0.14882213 0.54054999 3552293
-0.27841231 0.14337236 0.54513335 2637620
-0.2521314 0.14059982 0.54680002 2308148
-0.2434494 0.14319967 0.54547137 2110506
-0.2064935 0.14985873 0.54259998 1980208
-0.18592665 0.14294061 0.54447496 2044717
-0.175561 0.14193702 0.54425997 2110509
-0.14386834 0.14014782 0.54246664 2110511
-0.13879716 0.1401334 0.54229999 2044716
-0.093076535 0.14432538 0.54775 1781546
-0.085374773 0.14427178 0.54742497 1913384
-0.074137509 0.14313056 0.54614997 1913128
-0.064854383 0.144115 0.54550004 1649187
-0.054960549 0.14346884 0.5456 1451805
-0.031095689 0.14199321 0.54456669 1320219
-0.026443155 0.14505002 0.54492497 1320220
-0.30165353 0.15501897 0.54509997 16683098
-0.2964181 0.1543044 0.54541665 16617305
-0.28444928 0.15274626 0.54563332 7363139
-0.27877444 0.15586732 0.54759997 2571832
-0.2120914 0.15477529 0.54529995 1913389
-0.20845702 0.15450035 0.5413 2110511
-0.17307508 0.15674761 0.54387498 2110253
-0.16553329 0.15552227 0.54385 1979696
-0.15585102 0.15759063 0.54455709 1848108
-0.024084186 0.15464757 0.54388005 1451548
-0.017474042 0.1510947 0.5438 1385756
-0.31237537 0.16892742 0.54939997 16617050
-0.30583417 0.16506575 0.54501247 16617564
-0.27414942 0.16729131 0.54355001 2373938
-0.22144108 0.16530256 0.54686666 1978925
-0.21616666 0.16431403 0.54283744 1979181
-0.17321025 0.16194175 0.54439998 1848617
-0.16494507 0.16539344 0.54317498 2044974
0.078710541 0.16781418 0.54089999 1781033
0.08381623 0.1679128 0.54126668 1649962
-0.31236449 0.17146942 0.54939997 16420182
-0.30541801 0.17472145 0.54657501 16618076
-0.29597738 0.1771695 0.54139996 16684639
-0.27254668 0.17481607 0.54432225 2571316
-0.26833662 0.17749929 0.54579997 2505778
0.078688703 0.17029345 0.54079998 1715240
0.0856172 0.17532472 0.54480004 1781033
0.093726635 0.17820452 0.544025 1715495
-0.3230713 0.1874242 0.54713994 16486750
-0.3154366 0.18759386 0.54828751 16552541
-0.30578226 0.18491934 0.54899997 16618077
-0.29494622 0.18438132 0.54605001 16356445
-0.28851038 0.18450069 0.54259998 14780757
0.084679648 0.18410063 0.54387003 1715753
0.094446346 0.18284003 0.54469997 1846823
0.10141538 0.18162191 0.54114997 1978923
-0.32235378 0.19421591 0.54794997 16553054
-0.3146694 0.19374336 0.54481661 16618846
-0.30486789 0.19113944 0.54742491 16553054
-0.2972967 0.19114751 0.54734999 16553822
-0.32224888 0.2031469 0.54925001 16487777
-0.31517395 0.20357078 0.54358333 16487776
-0.25547105 0.2190547 0.54698002 2308404
-0.24393828 0.21655539 0.54293752 2176560
-0.27012399 0.22382976 0.54446667 2374198
-0.2653259 0.22532065 0.544025 2440503
-0.25387353 0.22776198 0.54370004 2177074
-0.24770568 0.22403394 0.54495716 2111280
-0.21041995 0.22955121 0.5413 2044716
-0.26462847 0.23085693 0.54519999 2308661
-0.2218401 0.23437284 0.54493332 1979952
-0.21674453 0.23094459 0.54466665 2242095
-0.20666611 0.23596001 0.54353333 1913644
-0.33196372 0.24771413 0.54664999 16711673
-0.32564047 0.24631858 0.54173332 16711675
-0.22477062 0.24532098 0.54510003 1848366
-0.21098639 0.24060734 0.54939997 2044716
-0.20430551 0.24507976 0.5451833 1782316
-0.19412634 0.24718335 0.54139996 1848364
-0.18434101 0.24752505 0.542 1716779
-0.17536312 0.24777651 0.54514998 1913646
-0.16542467 0.24676989 0.54554999 1782574
-0.15786535 0.24682137 0.54554999 1913643
-0.33333713 0.25285441 0.54517996 16711674
-0.32824722 0.25971192 0.54259998 16711675
-0.22174063 0.25258222 0.54804999 1519916
-0.21512315 0.25411946 0.54478002 1782827
-0.20529827 0.25312942 0.54515713 1848365
-0.19372907 0.25372368 0.5455308 1847594
-0.18739669 0.25628021 0.5474 1848108
-0.17627057 0.25033414 0.54799998 1650220
-0.16403805 0.25106001 0.54939997 1782059
-0.15769315 0.25110292 0.54939997 1978925
-0.32495981 0.26159942 0.5413 16711675
-0.18259072 0.26048732 0.54820001 1913644
-0.17506517 0.26063251 0.54839998 1847591
-0.091431305 0.27047884 0.54184997 1583655
0.26685455 -0.14019234 0.55079997 1651507
0.33367094 -0.14281306 0.55199999 16580603
0.06645295 -0.1315351 0.55746669 2176304
0.071849301 -0.13192405 0.55549997 2307377
0.24756637 -0.13195993 0.55879998 2307892
0.25482914 -0.13230602 0.55500001 2045231
0.26219714 -0.13794799 0.55707496 1979953
0.27522248 -0.13025802 0.55219996 1914415
0.3072798 -0.13205984 0.55489999 2638658
0.31361967 -0.13988721 0.55034995 16580603
0.067511454 -0.12712453 0.55715001 2045488
0.074230827 -0.12623076 0.55654997 2110767
0.24726191 -0.12553228 0.55544549 2045486
0.25423953 -0.12459577 0.55281174 1979952
0.26491541 -0.12248551 0.55453748 1848627
0.27420521 -0.12355537 0.55483848 1979441
0.28367937 -0.1227 0.55874997 1979697
0.30661944 -0.12534969 0.55366665 2243128
0.25536805 -0.11768205 0.55772001 1979954
0.26350674 -0.11599278 0.55619091 1783091
0.28599718 -0.11431333 0.55467999 2110512
0.29368716 -0.11397566 0.55649996 1979697
0.30538204 -0.11970589 0.55140001 2440248
0.16261223 -0.10181682 0.55544996 2044462
0.1740447 -0.10634486 0.55904996 2373422
0.18546122 -0.10140343 0.55511999 2044974
0.19635315 -0.10136587 0.55608332 2045489
0.20449963 -0.10327312 0.55724996 2176303
0.21520007 -0.10425963 0.55681425 2241582
0.22486314 -0.10161784 0.55720001 2044979
0.23238924 -0.10091324 0.55919999 2110513
0.25813934 -0.10493875 0.55356663 1848369
0.2879217 -0.10539494 0.55389994 1782320
0.29407632 -0.10515135 0.55395555 1716783
0.11388858 -0.093236893 0.55745828 1979181
0.12154479 -0.092773125 0.55794001 1978924
0.16220461 -0.093160413 0.55539995 2109739
0.18447113 -0.09481144 0.55403572 2176048
0.19521484 -0.09596356 0.55484444 2044719
0.20138192 -0.099769317 0.55219996 1979697
0.21654803 -0.092951722 0.55417496 2045233
0.22614864 -0.094026327 0.5574615 2044719
0.23437309 -0.0966966 0.55896002 2110255
0.25425106 -0.093359374 0.5561555 1979438
0.29576764 -0.095482491 0.55440003 1782833
0.30406213 -0.092707321 0.55462503 1716524
0.35611615 -0.093516596 0.5563333 16443554
0.36122674 -0.092325784 0.55694997 16375709
0.11518893 -0.085391745 0.55734444 2044204
0.12182341 -0.085465185 0.55793333 2044716
0.16783537 -0.086231805 0.55545002 1978926
0.17462495 -0.086373322 0.55417144 2044461
0.18162386 -0.085515596 0.55949998 2044718
0.21701936 -0.087985039 0.55943328 1848622
0.22264354 -0.088663049 0.55839998 1979695
0.25613445 -0.085002072 0.55461001 1914160
0.28846091 -0.082451865 0.55040002 1848370
0.29371685 -0.085797757 0.55554998 1717298
0.30693203 -0.085519306 0.55399996 1782575
0.35673478 -0.084809013 0.55367142 16441503
0.1072084 -0.07658381 0.5564 2176047
0.11553244 -0.079508848 0.55272496 2175532
0.12504971 -0.079789005 0.55483335 2175272
0.15906823 -0.07860212 0.55629998 1978925
0.16421176 -0.077956766 0.551875 1847851
0.17544772 -0.076258592 0.55222499 1913132
0.18594739 -0.074515499 0.55550992 2044460
0.19322765 -0.074163288 0.55792499 2044205
0.22871959 -0.07188271 0.55629998 2109996
0.23427813 -0.074738421 0.55558568 2175532
0.2427443 -0.076998398 0.55612499 1978411
0.25249788 -0.079393357 0.55499995 2045488
0.29681411 -0.078270204 0.55413324 1716270
0.30401191 -0.078466319 0.55563331 1848111
0.35430637 -0.075664677 0.55615997 16440988
-0.070423812 -0.062104687 0.55879998 2241582
-0.064892672 -0.061820406 0.55616665 2110512
-0.059855148 -0.062009953 0.55779999 2177074
0.077272192 -0.061841443 0.55620003 2176048
0.082337402 -0.063033715 0.55522496 2110510
0.17688802 -0.064947888 0.55129999 1913388
0.18468854 -0.066844016 0.55651248 1978920
0.19682321 -0.069061294 0.5589 2110254
0.20171109 -0.069825642 0.55989999 2175791
0.22537117 -0.065940723 0.55617142 2110254
-0.092096172 -0.053516854 0.55705994 2110255
-0.084282525 -0.05519557 0.55533755 2044977
-0.077535786 -0.057618879 0.55355 2044975
-0.061753683 -0.058709137 0.55140001 2175791
-0.056434631 -0.055975735 0.5535 2307377
0.028018788 -0.055957537 0.5535 1781290
0.033418581 -0.054105893 0.55679995 1846826
0.044968024 -0.051755805 0.55969995 1649963
0.054014839 -0.051620312 0.55830002 1781291
0.065018937 -0.052207083 0.55533332 1782060
0.073710836 -0.057010412 0.55483997 2044717
0.2253993 -0.056339864 0.55646664 2109739
-0.091117322 -0.047539361 0.55739999 1978924
-0.084778011 -0.045664575 0.55562496 1979180
-0.077334806 -0.047103807 0.55199999 1979178
-0.053961229 -0.048319813 0.55079997 1913902
-0.048926219 -0.045856312 0.55219996 2111281
0.028704677 -0.04699605 0.55005002 1978155
0.035314612 -0.045875646 0.55694616 1780775
0.046068806 -0.045642275 0.55720836 1649448
0.055438645 -0.044639025 0.55287504 1781290
0.063892074 -0.04612796 0.55183333 1847339
0.25894424 -0.048331536 0.55489999 1847339
0.26647714 -0.047856241 0.55461663 1978925
0.27306393 -0.043136101 0.55500001 1848366
-0.087922789 -0.038135383 0.55360001 2175791
0.033971258 -0.032884747 0.55168331 1583396
0.044583742 -0.03044875 0.5546667 1451811
0.056481667 -0.037701942 0.55416 1649447
0.063090086 -0.033919699 0.55483335 1714985
0.27381513 -0.035775762 0.55538571 1585451
-0.10380692 -0.020010326 0.55549997 1847340
-0.097280823 -0.020006206 0.55524999 1913130
0.049599126 -0.023842838 0.552625 1451038
0.052681327 -0.024065275 0.55779999 1319452
0.064377621 -0.025762528 0.55491996 1517092
-0.11243533 -0.013059267 0.55543333 1782058
-0.10565408 -0.016845137 0.55425996 1781802
0.038557112 -0.013085216 0.55539995 1056540
0.044705875 -0.016157081 0.55634999 1056283
0.067083634 -0.019127179 0.55426663 1254687
0.072610825 -0.012861963 0.55519998 1188639
-0.12215131 -0.0057130284 0.559425 1782060
-0.11647699 -0.0053150817 0.55522728 1782060
0.037698336 -0.0054021389 0.55298007 1187615
0.045918409 -0.0017725161 0.55514997 1122074
0.055055752 -0.0017726654 0.5553 1121817
0.064415067 -0.0030887395 0.55738747 1056279
0.074225768 -0.0054149916 0.55459994 991004
0.080716401 -0.001763052 0.55269998 726797
-0.12146366 0.0021527868 0.55925 1847340
-0.11450734 0.0039355117 0.55710906 1847338
-0.10527386 0.0056476998 0.55479228 1847337
-0.096121147 0.0057119844 0.55412501 1847081
0.045982588 0.0041640215 0.55142146 1056024
0.054725628 0.0047202501 0.55195826 990485
0.063457496 0.0038888743 0.55657494 924949
0.074917912 0.0021536055 0.55774999 924695
0.082766846 0.0045017041 0.55603999 2369564
0.37553158 0.005325601 0.55137503 16623983
0.38123676 0.0033969718 0.55039996 16492655
-0.24463256 0.018911829 0.55433333 1980464
-0.12025005 0.019212078 0.55970001 1781033
-0.11443225 0.017303837 0.55855715 1847337
-0.10547277 0.014039058 0.55399996 1781801
-0.098041162 0.011196593 0.55219996 1978923
0.047733344 0.014417307 0.55506003 989973
0.054225728 0.014163917 0.55653632 924691
0.061176617 0.013291595 0.557675 924434
0.084070981 0.019183664 0.55779999 659985
0.36766738 0.016206361 0.55104995 10186830
0.37387207 0.015916916 0.55584997 15638377
-0.26156324 0.028108995 0.55795002 2439733
-0.25608337 0.027238246 0.55603999 2308660
-0.24419081 0.021342874 0.550475 2111794
-0.23605663 0.022271454 0.55213332 1980207
-0.22554286 0.028467536 0.55543333 2110511
-0.14210947 0.027538512 0.55612504 2044973
-0.13611218 0.025549231 0.55538332 1979439
-0.12024675 0.023147644 0.55970001 1847341
-0.11433125 0.023010353 0.55625004 1781549
-0.10490953 0.026844677 0.55447495 1649962
-0.098030992 0.026740734 0.55219996 1847339
0.045922905 0.026077922 0.55291426 1055764
0.064481862 0.027059583 0.55804998 924435
0.073410355 0.026283501 0.55412221 924693
0.081819154 0.022534052 0.55436665 923408
0.36669275 0.021344785 0.55149996 3421739
0.37512818 0.021388004 0.55265999 14600107
0.38595173 0.021348238 0.55167496 16711674
