# .PCD v0.7 - Point Cloud Data file format
VERSION 0.7
FIELDS x y z rgb
SIZE 4 4 4 4
TYPE F F F U
COUNT 1 1 1 1
WIDTH 1175
HEIGHT 1
VIEWPOINT 0 0 0 1 0 0 0
POINTS 1175
DATA ascii
0.1202096 0.22106868 0.52509999 1519395
0.11776797 0.21225935 0.50419998 1650728
0.11937219 0.21094388 0.5011 1519144
0.12167589 0.21089122 0.50099999 1255974
0.12402787 0.21092261 0.5011 1584939
0.14317405 0.23898564 0.56779999 1584937
0.12174876 0.19953717 0.47409999 1387558
0.1241855 0.19990547 0.47499999 1519144
0.12633763 0.1998107 0.47479999 1519144
0.12851468 0.19975787 0.47469997 1388073
0.13052529 0.19945252 0.47399998 1453866
0.13182914 0.19809522 0.47079998 1387560
0.13307454 0.19669592 0.4675 1453351
0.13521475 0.19664297 0.46739998 1453351
0.13650139 0.19536994 0.46439999 1650730
0.13865562 0.19535901 0.46439999 1519144
0.14077926 0.19530596 0.46429998 1519144
0.14290173 0.19525285 0.46419999 1519144
0.14502303 0.19519971 0.46409997 1387556
0.14711142 0.19510452 0.4639 1781544
0.14916553 0.19496721 0.46359998 1583652
0.15118401 0.19478786 0.4632 1977893
0.1531985 0.19460851 0.4628 1714721
0.15514193 0.19434507 0.46219999 1780514
0.15714762 0.19416574 0.46179998 1452319
0.15911491 0.19394442 0.46129999 1518625
0.16093752 0.19355495 0.46039999 1518625
0.16253904 0.19291331 0.45889997 1649698
0.1645212 0.19273418 0.4585 1583905
0.16646309 0.19251306 0.45799997 1649698
0.1685106 0.1924181 0.4578 1715751
0.17066787 0.19244927 0.45789999 1453351
0.17286366 0.19252253 0.45809999 1650730
0.17506111 0.19259584 0.45829999 1781544
0.17726026 0.19266918 0.4585 1584935
0.17953937 0.19282663 0.45889997 1387556
0.18170325 0.19285811 0.45899999 1650728
0.18386796 0.19288968 0.45909998 1388071
0.18574989 0.19262725 0.4585 1585452
0.18762614 0.19236493 0.45789999 1322280
0.18974535 0.1923548 0.45789999 1387560
0.19018847 0.19066456 0.45389998 1386790
0.19148408 0.18985668 0.45199999 1386790
0.19181991 0.188125 0.4479 1584169
0.19224757 0.18651962 0.44409999 1584165
0.19198374 0.18428457 0.43879998 1387037
0.19396999 0.18423364 0.43869999 1650209
0.19586594 0.18409888 0.4384 1650211
0.19784941 0.18404828 0.43829998 1715751
0.19992316 0.18408182 0.4384 1781544
0.20195179 0.18407357 0.4384 1781544
0.20393391 0.18402345 0.43829998 1715751
0.20633808 0.18435141 0.4391 1584935
0.20851246 0.18446967 0.43939999 1781546
0.21064174 0.18454608 0.43959999 1715753
0.21277297 0.18462269 0.43979999 1584937
0.21490614 0.18469952 0.44 1650730
0.21709061 0.18481857 0.44029999 1584937
0.21967612 0.18527357 0.44139999 1650981
0.22202082 0.18551894 0.442 1716004
0.22381355 0.18530282 0.44149998 1979176
0.2258065 0.18525489 0.44139999 1716004
0.2277987 0.18520717 0.44129997 1781797
0.22973816 0.18511777 0.4411 1715753
0.23172846 0.18507059 0.44099998 1716525
0.23398316 0.18523352 0.44139999 1848109
0.23602793 0.18522884 0.44139999 1584935
0.23801902 0.18518247 0.44129997 1585188
0.24245751 0.18702474 0.44569999 1848360
0.24441333 0.18693696 0.44549999 1650981
0.2491893 0.18898949 0.45039999 1848109
0.25133312 0.18902819 0.45049998 1716525
0.2535345 0.18910915 0.45069999 1848109
0.25692919 0.19007157 0.45299998 1716523
0.25920197 0.19019513 0.4533 1650730
0.26130506 0.19019318 0.4533 1781546
0.26352483 0.19027546 0.4535 1715753
0.26270103 0.1881763 0.44849998 1715751
0.26466516 0.18809149 0.44829997 1716004
0.26514038 0.18695807 0.4456 1650211
0.26727003 0.18699983 0.44569999 1716004
0.26940119 0.18704192 0.44579998 1716004
0.2745786 0.18918222 0.45089999 1716004
0.28103113 0.19216201 0.45799997 1716004
0.28921971 0.1962751 0.46779999 1847590
0.29451001 0.1983747 0.47279999 1716002
0.29921994 0.20005514 0.47679999 1781795
0.30169183 0.20022552 0.4772 1584935
0.30416816 0.20039636 0.47759998 1650728
0.30677724 0.20065151 0.47819999 1650728
0.30997422 0.20128475 0.4797 1650981
0.31246999 0.20145684 0.48009998 1519395
0.31497031 0.2016294 0.48049998 1649698
0.31747514 0.2018024 0.48089999 1583905
0.31991804 0.20193389 0.48119998 1847077
0.32223073 0.2019819 0.4813 1716004
0.32420811 0.20182049 0.48089999 1519395
0.32638624 0.20178545 0.48079997 1649958
0.32596704 0.20015599 0.47689998 1320997
0.32606283 0.19886263 0.47379997 1453612
0.32446769 0.1965622 0.46829998 1124647
0.32658875 0.19652875 0.4682 1190694
0.3263925 0.19511047 0.4648 1453351
0.32545841 0.19327268 0.46039999 1124384
0.32754394 0.19324036 0.4603 1387556
0.32812539 0.19232684 0.45809999 1716523
0.32746151 0.19069991 0.4542 1453353
0.32988229 0.19087867 0.45459998 1190179
0.32902133 0.18916832 0.45049998 1387556
0.32782885 0.18729024 0.44599998 1453349
0.32748288 0.18591629 0.4427 1387556
0.32450134 0.18307263 0.4359 1387556
0.32602662 0.18279107 0.43519998 1387556
0.32460633 0.18087173 0.43059999 1190943
-0.34986842 0.24464591 0.5783 16357739
-0.34354028 0.24206953 0.5722 16555888
-0.33744767 0.23962048 0.56639999 15507584
-0.3291626 0.23556413 0.55680001 16772055
-0.31744707 0.22896954 0.54119998 16777205
-0.31192809 0.22677523 0.53600001 16711673
-0.30322424 0.22221184 0.52520001 16711675
-0.29553655 0.21832556 0.51599997 16711675
-0.29287687 0.21812066 0.51550001 16711675
-0.29039112 0.21804303 0.51529998 16711675
-0.28807527 0.21809275 0.51539999 16711675
-0.28575876 0.21814284 0.51550001 16711675
-0.2834416 0.21819329 0.51559997 16711675
-0.28106925 0.21820179 0.51559997 16711675
-0.2786431 0.21816832 0.51550001 16449271
-0.27461028 0.21686548 0.51239997 6716009
-0.26853406 0.21391219 0.5054 2244664
-0.26599875 0.21375252 0.505 2244664
-0.26341507 0.21355087 0.50449997 1980722
-0.26083612 0.21334949 0.50400001 2571062
-0.25846702 0.21331774 0.50389999 2505269
-0.25803068 0.21489504 0.50760001 2571062
-0.25871897 0.21744651 0.51359999 2636342
-0.26059991 0.22105707 0.52209997 2571062
-0.26067188 0.22318633 0.52709997 2308660
-0.26329461 0.22756037 0.53740001 2440248
-0.262862 0.22935203 0.54159999 2506041
-0.26013124 0.22915368 0.54109997 2637627
-0.25750032 0.22904031 0.54079998 2440246
-0.25482488 0.2288848 0.54039997 2308660
-0.25219986 0.22877191 0.54009998 1914415
-0.24846782 0.2276426 0.53740001 2111794
-0.24402808 0.22583555 0.53310001 2243380
-0.24153104 0.22580783 0.53299999 1848622
-0.23674719 0.22361955 0.52779996 1848622
-0.23423079 0.22354971 0.52759999 1717552
-0.23171605 0.22348008 0.52739996 1586734
-0.22924651 0.223453 0.5273 1783343
-0.22677767 0.22342607 0.52719998 2045999
-0.22524576 0.22433172 0.52929997 1980208
-0.22403111 0.22557677 0.53219998 2046001
-0.22295603 0.22699168 0.53549999 1914415
-0.22234447 0.22891565 0.53999996 1914415
-0.22173193 0.23088244 0.54460001 2111794
-0.21926531 0.23094168 0.54469997 2308658
-0.21675773 0.23095869 0.54469997 2176302
-0.21421051 0.23093341 0.54460001 2372398
-0.21041995 0.22955121 0.5413 2044716
-0.206429 0.22791441 0.53740001 1979695
-0.20243569 0.22623503 0.5334 1979697
-0.19866635 0.22476757 0.52990001 1979695
-0.19622499 0.22478467 0.52990001 2110511
-0.19378328 0.22480184 0.52990001 2176306
-0.19144954 0.22494632 0.5302 2110511
-0.18836406 0.22419983 0.5284 2176306
-0.18585777 0.2241322 0.52819997 2110513
-0.18331821 0.22402215 0.52789998 2242099
-0.17961608 0.22246917 0.52419996 2176304
-0.17652231 0.22163747 0.52219999 2110762
-0.17297979 0.22021139 0.51879996 2176042
-0.16966556 0.21903981 0.51599997 2110249
-0.16631189 0.21778314 0.51300001 2306858
-0.16391231 0.21775748 0.51289999 2306858
-0.16148171 0.21768929 0.51269996 2240812
-0.16001461 0.21893744 0.51559997 1912619
-0.15760316 0.21891175 0.51550001 1913902
-0.15522228 0.2189285 0.51550001 1782829
-0.152841 0.21894518 0.51550001 1914417
-0.15045927 0.21896176 0.51550001 1848624
-0.14810579 0.21902078 0.51559997 1848624
-0.14577927 0.21912223 0.5158 1782831
-0.14350604 0.21930857 0.51620001 1848111
-0.1411193 0.21932492 0.51620001 1848109
-0.13873212 0.21934111 0.51620001 1848107
-0.13629167 0.21927226 0.51599997 1847588
-0.13387857 0.21924576 0.51590002 2241063
-0.1307268 0.21798663 0.51289999 2044456
-0.12727705 0.21617466 0.5086 2044716
-0.12374382 0.21414973 0.50379997 1978923
-0.12129088 0.21395236 0.50330001 1650728
-0.11799122 0.2122243 0.49919999 1848109
-0.11489133 0.21079351 0.49579999 1848109
-0.11177708 0.20927732 0.49219999 1848109
-0.1094299 0.20916395 0.4919 1847339
-0.10706332 0.20900793 0.49149999 2044205
-0.1045934 0.20863907 0.49059999 2044205
-0.10221485 0.20844011 0.4901 1715751
-0.099860922 0.20828348 0.48969999 1847337
-0.097570069 0.20825426 0.48959997 1978923
-0.095279768 0.20822488 0.48949999 1781544
-0.093027994 0.20828034 0.48959997 1781544
-0.091256842 0.20944177 0.49229997 1716521
-0.089369886 0.21039039 0.49449998 1848107
-0.08758539 0.21163678 0.49739999 1715751
-0.085293524 0.21169166 0.49749997 1847337
-0.08298368 0.21170379 0.49749997 1847337
-0.080673464 0.2117157 0.49749997 1519142
-0.077591069 0.20964205 0.49259999 1716521
-0.075409889 0.2099513 0.49329999 1650728
-0.072080538 0.20698304 0.48629999 1650728
-0.069059961 0.20473783 0.48099998 1978923
-0.066296712 0.20313066 0.4772 1649958
-0.064092144 0.20318331 0.47729999 1781544
-0.061886333 0.20323572 0.47739998 1912617
-0.059804276 0.20371363 0.47849998 2044456
-0.057735745 0.20427652 0.47979999 1912868
-0.055562269 0.20449851 0.48029998 1847075
-0.053372763 0.20467778 0.48069999 1847590
-0.051179245 0.20485678 0.48109999 1585188
-0.048961382 0.20495032 0.4813 1848360
-0.046760805 0.20512882 0.48169997 1650981
-0.044547006 0.20526449 0.48199999 1453602
-0.042321388 0.20535731 0.4822 1650981
-0.040101968 0.20549244 0.48249999 1519142
-0.037863832 0.20554213 0.48259997 1715751
-0.035639301 0.20567675 0.48289999 1649960
-0.033404835 0.20576851 0.4831 1715753
-0.031174753 0.20590255 0.48339999 1781546
-0.028935688 0.20599377 0.48359999 1715751
-0.026694572 0.20608471 0.48379999 1715751
-0.02449182 0.20651612 0.48479998 1715751
-0.022242894 0.20660651 0.48499998 1584935
-0.019987818 0.206654 0.4851 1519142
-0.017749924 0.20691422 0.48569998 1781544
-0.015490355 0.20696117 0.4858 1649960
-0.013226987 0.20696518 0.4858 1715755
-0.010961238 0.2069263 0.48569998 1649962
-0.00868735 0.20667414 0.4851 1649960
-0.0064215935 0.20650686 0.48469999 1452068
-0.0041629025 0.20650972 0.48469999 1584167
-0.0018801579 0.20391332 0.4786 1649960
0.00035005447 0.2037877 0.47829998 1715753
0.0025532737 0.20174453 0.47349998 1584165
0.0047359378 0.20072362 0.4711 1386786
0.0068845083 0.19936152 0.46789998 1518625
0.0090381633 0.19876608 0.46649998 1452319
0.011205238 0.19863904 0.46619999 1320733
0.013274839 0.19710562 0.46259999 991515
0.015427642 0.19706322 0.46249998 1188894
0.017575717 0.19697796 0.4623 1584418
0.019726185 0.19693501 0.46219999 1519395
0.021880439 0.19693442 0.46219999 1453349
0.024034668 0.19693352 0.46219999 1519144
0.026194535 0.19697499 0.4623 1649960
0.028631238 0.1989335 0.46689999 1518376
0.03093921 0.19978392 0.4689 1649962
0.033237509 0.20046364 0.47049999 1518374
0.035505466 0.20088741 0.47149998 1715753
0.037702709 0.20088491 0.47149998 1649960
0.039849091 0.20062645 0.4709 1519144
0.04200764 0.20045297 0.47049999 1453351
0.043842953 0.19883072 0.46669999 1715751
0.045977995 0.19865674 0.46629998 1715751
0.048181474 0.19878075 0.4666 1715751
0.050031479 0.19749863 0.46359998 1715753
0.052179892 0.19745176 0.46349999 1584167
0.054338951 0.19744723 0.46349999 1781546
0.056887913 0.19880557 0.46669999 1715751
0.059453886 0.20012105 0.4698 1715491
0.062337231 0.20237333 0.47509998 1781284
0.064522497 0.20228249 0.47489998 1715491
0.067211606 0.20372485 0.47829998 1650211
0.069830574 0.20486869 0.48099998 1255970
0.072549403 0.20622522 0.4842 1388073
0.0755141 0.20817767 0.48879999 1453864
0.077821188 0.20825589 0.48899999 1388071
0.080129921 0.20833388 0.4892 1256223
0.082423449 0.20836908 0.48929998 1781797
0.084700376 0.20836145 0.48929998 1781797
0.086941518 0.20826848 0.48909998 1650211
0.089198805 0.20821786 0.48899999 1781797
0.090837598 0.20676196 0.48559999 1781544
0.093038835 0.20662586 0.48529997 1650211
0.095256686 0.20653215 0.4851 1649698
0.097492494 0.20648083 0.48499998 1715238
0.099871092 0.20672736 0.48559999 1715753
0.10482086 0.21216717 0.49839997 1518374
0.11287737 0.22352326 0.52509999 1584937
0.11531816 0.22351305 0.52509999 1124899
0.11103092 0.21073355 0.49509999 1585188
0.12019893 0.22349216 0.52509999 1716002
0.11691681 0.21305428 0.50059998 1650211
0.11933789 0.21321419 0.50099999 1715751
0.12164098 0.21316113 0.50089997 1518374
0.12171546 0.20927815 0.49179998 1715753
0.12238587 0.20654429 0.48539999 1715751
0.12340742 0.20449138 0.4806 1584165
0.12433182 0.20235349 0.47559997 1649445
0.12648663 0.20225787 0.4754 1715238
0.12863931 0.20216213 0.4752 1584167
0.13054205 0.20168346 0.47409999 1519146
0.13179033 0.20022638 0.4707 1322280
0.1330068 0.19876938 0.4673 1190692
0.13514601 0.19871604 0.46719998 1322276
0.13640232 0.19738674 0.46409997 1584935
0.13852526 0.19733338 0.46399999 1518625
0.14064702 0.19727995 0.4639 1584418
0.14279838 0.19726904 0.4639 1519142
0.14491823 0.19721551 0.46379998 1387556
0.14700522 0.1971195 0.46359998 1847337
0.14909008 0.19702342 0.46339998 1649445
0.15110762 0.19684234 0.463 1846307
0.1531212 0.19666125 0.46259999 2043686
0.15506372 0.19639514 0.46199998 1780514
0.15706848 0.19621406 0.46159998 1780514
0.15903486 0.19599056 0.46109998 1781284
0.16092648 0.19568206 0.46039999 1584418
0.16266975 0.19520362 0.45929998 1453349
0.16461791 0.19498022 0.45879999 1519395
0.16659759 0.19479939 0.45839998 1256223
0.16861017 0.19466113 0.45809999 1649958
0.1707689 0.19469288 0.45819998 1584165
0.17292839 0.19472468 0.45829999 1649958
0.17512682 0.19479904 0.4585 1781544
0.17732698 0.19487344 0.4587 1781544
0.17952883 0.19494791 0.45889997 1781544
0.18169281 0.19497998 0.45899999 1649958
0.18381755 0.19496967 0.45899999 1453349
0.18578015 0.19478956 0.45859998 1651241
0.18749309 0.19435471 0.4576 1453862
0.18869945 0.1934104 0.45539999 1453349
0.19017865 0.19276357 0.45389998 1716521
0.19155918 0.19203199 0.4522 1649960
0.1918533 0.19023901 0.44799998 1715753
0.19219506 0.18853126 0.44399998 1649962
0.19197479 0.18631434 0.43879998 1518376
0.19391701 0.18622065 0.4386 1584165
0.19581264 0.18608464 0.43829998 1649958
0.19779582 0.18603376 0.4382 1650728
0.19986928 0.18606791 0.43829998 1584418
0.20185155 0.18601739 0.4382 1716004
0.20383292 0.185967 0.43809998 1584418
0.20628335 0.18634129 0.43899998 1584418
0.20845743 0.18646108 0.4393 1716004
0.21058644 0.18653859 0.43949997 1584418
0.21271743 0.18661633 0.43969998 1453602
0.21485037 0.18669428 0.43989998 1716772
0.21698527 0.18677242 0.44009998 1585186
0.21942078 0.18710543 0.4409 1585188
0.22095972 0.18667479 0.43989998 1914153
0.22355412 0.18713558 0.44099998 1650981
0.22564729 0.1871722 0.4411 1387809
0.22768998 0.18716669 0.4411 1387809
0.22962873 0.18707657 0.4409 1649958
0.2316184 0.18702914 0.44079998 1715753
0.23408449 0.18736385 0.44159999 2044718
0.23613048 0.18735939 0.44159999 1715753
0.23806883 0.18727037 0.44139999 1979176
0.2426168 0.18921809 0.44599998 1716002
0.24457432 0.18912961 0.44579998 1781795
0.24929664 0.19116266 0.4506 1781544
0.25149748 0.19124447 0.4508 1649962
0.25370061 0.1913266 0.45099998 1584685
0.25675666 0.19204541 0.45269999 1519146
0.25902838 0.19217061 0.45299998 1913902
0.26113042 0.19216888 0.45299998 1584937
0.260618 0.19025856 0.44849998 1584937
0.26270005 0.19025753 0.44849998 1781544
0.26277533 0.18881458 0.44509998 1452319
0.26329553 0.18771131 0.4425 1715240
0.26535121 0.18771139 0.4425 1649447
0.26746786 0.18775421 0.44259998 1715491
0.26958597 0.1877974 0.4427 1716002
0.27422136 0.18958022 0.44689998 1781795
0.28198773 0.19348453 0.45609999 1650209
0.28828296 0.19632874 0.4628 1847588
0.29621014 0.20023401 0.472 1782049
0.29847047 0.20027925 0.47209999 1519393
0.30073237 0.20032492 0.47219998 1585699
0.30293179 0.20032857 0.47219998 1650981
0.30655366 0.20126604 0.47439998 1716002
0.3103919 0.20233123 0.47689998 1584670
0.31261548 0.20233622 0.47689998 1847842
0.31483996 0.20234163 0.47689998 1650463
0.31699875 0.20230509 0.47679999 1847588
0.31915736 0.20226896 0.47669998 1585186
0.32131597 0.20223327 0.47659999 1585186
0.32123432 0.20079772 0.47319999 1584935
0.32337731 0.20076287 0.47309998 1386790
0.32262993 0.19894609 0.46879998 1518376
0.32274392 0.19768131 0.46579999 1584167
0.32213324 0.19599247 0.46179998 1847339
0.32394394 0.19578941 0.46129999 1453349
0.32348874 0.19422854 0.4576 1387809
0.32541916 0.19411112 0.45729998 1387807
0.32469758 0.19242352 0.4533 1190430
0.32444412 0.19103335 0.44999999 1190177
0.32648286 0.19100195 0.4499 1386526
0.32640356 0.18973973 0.44689998 1386526
0.32460651 0.18750124 0.44159999 1650211
0.32438806 0.18619703 0.43849999 1716004
0.32458818 0.18514788 0.43599999 1716004
0.32326755 0.18324964 0.43149999 1781282
0.32454407 0.18283799 0.4305 1781282
-0.35167947 0.24860689 0.58129996 16620657
-0.34719831 0.24732785 0.5783 15637627
-0.34006432 0.24412462 0.57080001 16771284
-0.32921657 0.23818442 0.55689996 16777205
-0.31738299 0.23143184 0.54109997 16711673
-0.31494841 0.23148009 0.54119998 16711675
-0.30171704 0.22353025 0.5226 16711675
-0.29547298 0.22067049 0.51590002 16711675
-0.29105216 0.21913698 0.51230001 16711675
-0.28863716 0.21910094 0.5122 16711675
-0.28627923 0.21910806 0.5122 16711675
-0.28392166 0.21911556 0.5122 16711675
-0.28156438 0.21912342 0.5122 16711675
-0.27926183 0.2191744 0.51230001 16711675
-0.27495873 0.21764275 0.50870001 16515064
-0.27143919 0.21671033 0.50650001 4743504
-0.26687753 0.21492237 0.50229996 2704696
-0.26440889 0.21480343 0.50199997 2572343
-0.26168203 0.2144708 0.50119996 2374964
-0.259532 0.21460922 0.50150001 2440244
-0.25722542 0.21461956 0.50150001 2177072
-0.25496975 0.21467295 0.50159997 2177074
-0.25271332 0.21472669 0.50169998 2374453
-0.25514764 0.21880411 0.51120001 2506037
-0.25635728 0.22189771 0.51840001 2308660
-0.255786 0.22349368 0.52209997 2243382
-0.25765586 0.22727339 0.5309 2374968
-0.2600697 0.23161034 0.54100001 2308662
-0.24977341 0.22460233 0.52459997 2571832
-0.25094447 0.22786973 0.53219998 2440759
-0.24849692 0.22788352 0.53219998 1980208
-0.24309047 0.22515695 0.52579999 2308660
-0.23920748 0.22380066 0.5226 2045488
-0.2367132 0.22372919 0.52239996 1914415
-0.23422067 0.22365797 0.52219999 1848622
-0.23048683 0.2223876 0.51919997 1783343
-0.2282742 0.22257367 0.51959997 1848624
-0.2274923 0.22417361 0.52329999 1914417
-0.22508468 0.22418882 0.52329999 1914415
-0.22518747 0.22673197 0.52919996 1782829
-0.22393094 0.22794743 0.53200001 2046003
-0.22289817 0.22942027 0.53539997 1782577
-0.22339845 0.23252192 0.54259998 1914163
-0.22257009 0.23429559 0.5467 1914415
-0.22114021 0.23546961 0.54939997 2242097
-0.2194863 0.23642962 0.55159998 2241582
-0.2168285 0.23631823 0.55129999 2306605
-0.21405657 0.23607837 0.55070001 2109996
-0.20963827 0.23399504 0.54579997 1847339
-0.20560633 0.23229736 0.54179996 1978925
-0.2008986 0.22978485 0.5359 1848109
-0.19835547 0.22971624 0.53569996 1913902
-0.19566756 0.22947618 0.53509998 1979695
-0.19157673 0.22756353 0.53060001 2111281
-0.18834686 0.22663711 0.5284 1979697
-0.18580537 0.22652556 0.52810001 1848111
-0.18326627 0.22641404 0.52779996 2044720
-0.17966744 0.22497261 0.5244 1913902
-0.17650522 0.22404581 0.52219999 1979695
-0.1730295 0.22268982 0.51899999 1913900
-0.17060211 0.22266383 0.51889998 1979693
-0.16811042 0.22255202 0.51859999 2110509
-0.16479026 0.22132431 0.51569998 2110509
-0.16263023 0.22164153 0.51639998 1781544
-0.16002886 0.22135784 0.51569998 1978923
-0.16134647 0.22656874 0.52779996 1979695
-0.15890884 0.22658579 0.52779996 1782829
-0.15489955 0.22432733 0.52249998 1783345
-0.15158087 0.2230131 0.5194 1651505
-0.14912328 0.22294381 0.51919997 1585198
-0.14663887 0.22283152 0.51889998 1650993
-0.14424019 0.22284798 0.51889998 1651245
-0.1418684 0.2229073 0.51899999 1913904
-0.13946836 0.22292359 0.51899999 1978923
-0.1370679 0.22293977 0.51899999 2110247
-0.13386261 0.22162411 0.51590002 2241063
-0.13150109 0.22168291 0.51599997 2044456
-0.12791213 0.21963635 0.51120001 1979176
-0.1247601 0.21827686 0.50800002 2044969
-0.1212999 0.2163154 0.50339997 2044969
-0.11797643 0.21452548 0.49919999 1978923
-0.11487676 0.21307896 0.49579999 1781544
-0.11176278 0.21154615 0.49219999 1978923
-0.10941576 0.21143141 0.4919 1978925
-0.10707112 0.21131648 0.49159998 2044718
-0.1045583 0.21085748 0.49049997 1978925
-0.1021804 0.2106562 0.48999998 1453351
-0.099806741 0.21045473 0.48949999 1848107
-0.097497076 0.21038203 0.48929998 1650728
-0.095208339 0.21035212 0.4892 1848107
-0.092958137 0.21040803 0.48929998 1716521
-0.091281191 0.21179691 0.49249998 1584935
-0.089917473 0.21400289 0.49759999 2044716
-0.087608144 0.21401544 0.49759999 1781544
-0.08531557 0.21407077 0.49769998 1847337
-0.083005011 0.21408288 0.49769998 1781544
-0.080694087 0.2140948 0.49769998 1978923
-0.07756386 0.21186949 0.49249998 1781544
-0.074863665 0.21071924 0.48979998 1715751
-0.071595423 0.20784771 0.4831 2110249
-0.06876234 0.20609431 0.479 2044456
-0.066203162 0.20507199 0.47659999 1781284
-0.064015046 0.2051681 0.47679999 1781797
-0.061811797 0.20522095 0.47689998 2044967
-0.05951985 0.20497237 0.4763 2110247
-0.057690356 0.20635886 0.4795 2044454
-0.055518519 0.20658319 0.47999999 1912868
-0.053330652 0.20676428 0.4804 1781795
-0.051138774 0.20694511 0.48079997 1781795
-0.048932739 0.20708267 0.48109999 1781797
-0.046733353 0.20726302 0.4815 1716004
-0.044511493 0.20735697 0.48169997 1650211
-0.042296316 0.2074938 0.48199999 1715751
-0.040078092 0.20763032 0.48229998 1584165
-0.037849002 0.20772353 0.48249999 1649960
-0.035625201 0.20785953 0.48279998 1781546
-0.033398401 0.2079953 0.4831 1649960
-0.031168589 0.20813076 0.48339999 1649960
-0.028923819 0.20817982 0.48349997 1781544
-0.026826879 0.20939121 0.48629999 1715751
-0.024521844 0.20905222 0.48549998 1584165
-0.022260768 0.20905742 0.48549998 1715751
-0.020003648 0.2091054 0.48559999 1650211
-0.017752752 0.20923923 0.48589998 1716004
-0.015489349 0.20924355 0.48589998 1518374
-0.013223086 0.20920454 0.4858 1583915
-0.01095763 0.20916525 0.48569998 1715755
-0.0086876182 0.20899643 0.48529997 1649447
-0.0064172526 0.20869817 0.48459998 1386786
-0.0041601779 0.20874412 0.48469999 1649958
-0.0018773644 0.20607649 0.47849998 1584165
0.0003521652 0.20599264 0.47829998 1781544
0.0025534586 0.20379813 0.47319999 1650211
0.0047394591 0.20298153 0.47129998 1518625
0.0068871984 0.20156164 0.46799999 1583905
0.0090410337 0.20095974 0.4666 1715491
0.011208295 0.20083135 0.46629998 1452319
0.013269469 0.19915216 0.46239999 1189147
0.015427735 0.19919547 0.46249998 1385505
0.017571731 0.19906625 0.46219999 1518374
0.019721458 0.19902287 0.4621 1584937
0.021874975 0.19902229 0.4621 1322280
0.024028465 0.19902144 0.4621 1255974
0.026187593 0.19906338 0.46219999 1649962
0.028623544 0.20104313 0.46679997 1584169
0.030957166 0.20207509 0.46919999 1715755
0.033200078 0.2024177 0.47 1650732
0.035525668 0.20319067 0.4718 1453351
0.03772404 0.20318818 0.4718 1584167
0.039905399 0.20309927 0.4716 1584167
0.04203124 0.20275171 0.47079998 1781031
0.043858334 0.20106889 0.46689999 1715238
0.045994043 0.2008931 0.46649998 1715238
0.048187878 0.20097546 0.46669999 1846824
0.050405025 0.2011437 0.46709999 1781544
0.052591998 0.20118245 0.46719998 1781544
0.054779772 0.201221 0.4673 1716004
0.057382729 0.20272329 0.47079998 1716004
0.060207937 0.20487115 0.47579998 1847077
0.062974617 0.20667423 0.47999999 1649698
0.065630779 0.20800334 0.4831 1583652
0.068329699 0.20937517 0.48629999 1649960
0.070942082 0.21040228 0.4887 1847339
0.07323204 0.21043888 0.48879999 1519144
0.075507276 0.2104322 0.48879999 1519144
0.077814132 0.2105114 0.48899999 1519144
0.080679521 0.21205401 0.49259999 1650730
0.082954958 0.21200356 0.49249998 1650730
0.08521194 0.21190985 0.49229997 1584937
0.087466829 0.21181595 0.4921 1387556
0.089701384 0.21167879 0.49179998 1584165
0.091315649 0.21012112 0.48819998 1715751
0.093011238 0.20882165 0.48519999 1649958
0.095228419 0.20872709 0.48499998 1781544
0.097483695 0.20871843 0.48499998 1649958
0.099759281 0.2087526 0.4851 1781546
0.10207761 0.20887268 0.48539999 1584939
0.10504331 0.21028343 0.4887 1519659
0.10784177 0.21130666 0.49109998 1388071
0.11014656 0.21134008 0.4912 1519655
0.11325307 0.21287911 0.4948 1256223
0.11559877 0.21295515 0.49499997 1781795
0.11794605 0.21303105 0.49519998 1781282
0.12024636 0.21302077 0.49519998 1715751
0.12170499 0.21154782 0.49179998 1386788
0.12235019 0.20874147 0.48529997 1518374
0.1234483 0.20679554 0.48079997 1715751
0.12447818 0.20480669 0.47619998 1715238
0.1266357 0.20471022 0.47599998 1846824
0.12881814 0.20465663 0.47589999 1781031
0.13050379 0.20382893 0.47399998 1584935
0.13177961 0.20239925 0.4707 1519657
0.13296761 0.20088363 0.46719998 1519657
0.1351063 0.20082995 0.46709999 1453349
0.1363034 0.19940044 0.46379998 1715238
0.1384249 0.19934671 0.4637 1977640
0.14054519 0.19929294 0.46359998 1846054
0.14269511 0.19928211 0.46359998 1649445
0.14481358 0.19922829 0.46349999 1519395
0.14693083 0.19917439 0.46339998 1518625
0.14901477 0.19907752 0.4632 1715238
0.15103135 0.19889466 0.4628 1912098
0.15307708 0.19875482 0.46249998 1714719
0.15501916 0.19848607 0.4619 1911838
0.15702349 0.19830328 0.46149999 1780766
0.15902393 0.19812053 0.46109998 1715489
0.16098548 0.19789486 0.46059999 1716002
0.16280055 0.19749737 0.45969999 1650211
0.16471472 0.1972288 0.45909998 1716004
0.16673219 0.19708921 0.45879999 1650211
0.16867308 0.19686376 0.45829999 1584165
0.17079552 0.19685316 0.45829999 1584167
0.17295551 0.19688553 0.45839998 1781546
0.17515448 0.19696096 0.45859998 1649962
0.17735517 0.19703642 0.45879999 1518376
0.17955755 0.19711195 0.45899999 1649960
0.18168251 0.1971017 0.45899999 1715751
0.18380734 0.1970915 0.45899999 1453600
0.18581057 0.19695261 0.4587 1651233
0.18727826 0.1962557 0.45709997 1585699
0.18893825 0.19577363 0.456 1650981
0.19000144 0.19469072 0.4535 1781797
0.19171914 0.19429485 0.4526 1781031
0.19188689 0.19235384 0.4481 1649960
0.19218604 0.19058485 0.44399998 1847341
0.1931472 0.18950291 0.44149998 1584167
0.19386417 0.18820663 0.43849999 1649958
0.19575953 0.18806943 0.4382 1518372
0.19774239 0.18801822 0.43809998 1584165
0.19986115 0.18809594 0.43829998 1781797
0.20175147 0.18795925 0.43799999 1584418
0.20368561 0.1878657 0.43779999 1650211
0.20496012 0.18717159 0.43619999 1847077
0.20688418 0.18707846 0.43599999 1715491
0.2088065 0.18698552 0.43579999 1584418
0.21077543 0.18693574 0.4357 1650979
0.21284124 0.18697195 0.43579999 1519393
0.21485877 0.18696548 0.43579999 1585186
0.21687646 0.18695924 0.43579999 1781797
0.21894455 0.18699615 0.4359 1781797
0.2210137 0.18703327 0.43599999 1519655
0.22313514 0.18711357 0.43619999 1454115
0.22520703 0.18715118 0.43629998 1519395
0.22946747 0.18899064 0.44059998 1650211
0.23140347 0.18890007 0.44039997 1781797
0.23423901 0.18953894 0.44189999 1847337
0.23623322 0.18949184 0.4418 1781546
0.24081556 0.19150372 0.4465 2044716
0.24266754 0.19132848 0.4461 2176555
0.24720432 0.19325508 0.4506 1649696
0.24934886 0.19329485 0.45069999 1846824
0.25149471 0.19333495 0.4508 1846826
0.2536419 0.19337538 0.45089999 1584939
0.25539339 0.19311592 0.45029998 1584937
0.25736839 0.19302835 0.45009997 1716004
0.25674808 0.19101131 0.4454 1716004
0.25887373 0.19105309 0.44549999 1847337
0.25965354 0.1901089 0.44329998 1649960
0.26011828 0.18895058 0.44059998 1781033
0.26061794 0.18783554 0.43799999 1715240
0.26097399 0.18663506 0.43519998 1847339
0.26299664 0.18663573 0.43519998 1584165
0.26501983 0.18663676 0.43519998 1781797
0.26931396 0.18822493 0.43889999 1781797
0.27407587 0.19011369 0.44329998 1847588
0.27950221 0.19243175 0.44869998 1979428
0.28610903 0.19552219 0.45589998 1782049
0.28829482 0.19556813 0.456 1651233
0.2953862 0.19891687 0.46379998 1519647
0.30075461 0.20106523 0.46879998 1716772
0.30642885 0.20338567 0.47419998 2110762
0.30831411 0.20317608 0.47369999 1650211
0.31039214 0.20309557 0.47349998 1716256
0.31240308 0.20297261 0.47319999 1650463
0.31447852 0.20289297 0.47299999 1584416
0.31655288 0.20281376 0.47279999 1650209
0.31653631 0.20140514 0.46949998 1716256
0.31866211 0.20136969 0.46939999 1518877
0.32071951 0.20129174 0.46919999 1716002
0.3200919 0.19954105 0.46509999 1714468
0.32046613 0.19843417 0.46249998 1846054
0.32235166 0.19827162 0.4621 1781031
0.32191691 0.19669348 0.45839998 1584937
0.32363999 0.19644588 0.4578 1255972
0.32215601 0.1942676 0.45269999 1519395
0.32270256 0.19333409 0.45049998 1518625
0.32265261 0.19205752 0.44749999 1255453
0.32460749 0.19198303 0.44729999 1255453
0.32473546 0.19083588 0.44459999 1386786
0.32461861 0.18956026 0.44159999 1649962
0.32447451 0.18828486 0.4386 1124388
0.32467544 0.18722436 0.43609998 1453351
0.32350537 0.18539132 0.43179998 1255970
0.32448211 0.18480362 0.43039998 1781546
-0.35167593 0.25129899 0.58129996 15966077
-0.34443256 0.24801712 0.57370001 16768970
-0.33743852 0.24486527 0.56639999 16777205
-0.32802951 0.239898 0.55489999 16711673
-0.3173193 0.23389342 0.54100001 16711675
-0.30970547 0.23009397 0.53219998 16711675
-0.30159584 0.2258624 0.52239996 16711675
-0.29397783 0.22193371 0.5133 16711675
-0.2911025 0.22155069 0.51239997 16711675
-0.28863031 0.2214707 0.5122 16711675
-0.28627202 0.22147757 0.5122 16711675
-0.2838586 0.22144157 0.51209998 16711675
-0.28150147 0.2214492 0.51209998 16711675
-0.27718216 0.21990037 0.50849998 16711675
-0.27489612 0.2199519 0.5086 16449531
-0.27019778 0.2180576 0.50419998 3493959
-0.26548705 0.21612024 0.49969998 2573629
-0.26308265 0.21604289 0.49949998 2440759
-0.26141122 0.21657141 0.5007 2506039
-0.25817645 0.21580261 0.4989 2374964
-0.25572765 0.21568291 0.49859998 2243378
-0.25333256 0.21560675 0.49839997 2309171
-0.25270236 0.21704505 0.50169998 2111532
-0.25029495 0.21696955 0.50150001 2440244
-0.25634536 0.22429286 0.51840001 2506041
-0.25577372 0.22590575 0.52209997 2506554
-0.2480828 0.22120155 0.51120001 2506039
-0.24573171 0.22121386 0.51120001 2440246
-0.24452324 0.22226508 0.51359999 2833719
-0.24348122 0.22348973 0.51639998 2439474
-0.24115281 0.22354621 0.5165 2308658
-0.23993294 0.22464176 0.51899999 2374451
-0.23740843 0.22452562 0.5187 2110509
-0.23488657 0.22440968 0.51840001 2242095
-0.2323674 0.22429396 0.51809996 2110511
-0.23025034 0.22456808 0.5187 2044718
-0.22738083 0.22410636 0.5176 2045490
-0.22495599 0.22407778 0.51749998 2045490
-0.22506945 0.22660424 0.52329999 1914417
-0.22517191 0.22917449 0.52919996 2046003
-0.22130559 0.22771759 0.52579999 2177076
-0.21992642 0.22881599 0.52829999 1913904
-0.22198227 0.23355316 0.53920001 1848111
-0.2210879 0.23525888 0.5431 1979693
-0.22245148 0.23943424 0.55269998 1979693
-0.22090153 0.24053437 0.55519998 1979695
-0.21830571 0.24050823 0.55509996 2110511
-0.21396151 0.23853235 0.55049998 2044718
-0.20965943 0.23655629 0.54589999 1978925
-0.20562702 0.23484005 0.54189998 1913902
-0.20091899 0.23230025 0.53600001 1848109
-0.19841234 0.23227397 0.5359 1782829
-0.19440722 0.2304706 0.53170002 1913904
-0.19166793 0.23014088 0.5309 1979697
-0.18832977 0.22907415 0.5284 1716525
-0.18476801 0.22770381 0.52520001 1848109
-0.18224223 0.2275907 0.52489996 2044718
-0.17968467 0.22743431 0.52450001 2110511
-0.176522 0.22649728 0.5223 2110511
-0.17304593 0.22512643 0.51910001 1848109
-0.17058522 0.22505654 0.51889998 1979697
-0.16809353 0.22494325 0.51859999 1913904
-0.16557227 0.22478655 0.51819998 1978925
-0.16273941 0.22419602 0.51679999 2175791
-0.16199796 0.22651212 0.52209997 2175791
-0.1613294 0.2290021 0.52779996 2044716
-0.15889183 0.22901909 0.52779996 1914413
-0.1549124 0.22677955 0.5226 1651241
-0.15159339 0.22545093 0.51949996 1914417
-0.14913546 0.22538069 0.51929998 1585452
-0.14667891 0.22531039 0.51910001 1651245
-0.14436276 0.22545701 0.5194 1651245
-0.14196141 0.22547331 0.5194 1651245
-0.13953274 0.22544615 0.51929998 1716523
-0.1371046 0.22541885 0.51919997 1848107
-0.1338467 0.22400205 0.51590002 2110762
-0.13151076 0.2241047 0.51609999 2176553
-0.12849705 0.22303475 0.51359999 2044969
-0.12476933 0.22066166 0.50809997 1847337
-0.12130897 0.21867901 0.50349998 1847337
-0.11796166 0.21682627 0.49919999 1978923
-0.11490858 0.21545091 0.49599999 1978923
-0.1117712 0.21385802 0.49229997 1847337
-0.10944611 0.21378531 0.4921 1781546
-0.10710072 0.213669 0.49179998 1781546
-0.10505608 0.21416079 0.49289998 1715753
-0.10275064 0.21413104 0.4928 1584935
-0.099752568 0.21262369 0.48929998 1650728
-0.097463951 0.2125935 0.4892 1913900
-0.09517587 0.21256313 0.48909998 1716521
-0.093496174 0.21392335 0.49219999 1584937
-0.091268465 0.21406654 0.49249998 1848109
-0.089940973 0.21638294 0.49779999 1716523
-0.087648511 0.21643895 0.49789998 1847339
-0.08535476 0.21649477 0.498 1978925
-0.083043016 0.21650687 0.498 2044718
-0.08073093 0.21651876 0.498 2044718
-0.077552393 0.21413904 0.49249998 1847339
-0.074867792 0.21301983 0.48989999 1847337
-0.071584642 0.21007395 0.4831 1781284
-0.068751864 0.20830163 0.479 1847077
-0.066151313 0.20713776 0.4763 2044454
-0.063964814 0.20723481 0.47649997 1781795
-0.061763205 0.20728815 0.47659999 2044967
-0.059522867 0.2072107 0.47639999 1781797
-0.057657003 0.20848148 0.47929999 1979176
-0.055497903 0.20875162 0.4799 1781797
-0.053310744 0.20893455 0.48029998 1847590
-0.051119588 0.20911723 0.48069999 1847590
-0.048924431 0.20929965 0.48109999 1716004
-0.046715595 0.20943834 0.48139998 1781797
-0.044494469 0.20953327 0.48159999 1716004
-0.042280011 0.20967144 0.48189998 1583905
-0.040062524 0.20980936 0.4822 1847339
-0.037842013 0.20994703 0.48249999 1387560
-0.035618484 0.21008442 0.48279998 1453353
-0.033391941 0.21022156 0.4831 1453351
-0.031162413 0.21035841 0.48339999 1913902
-0.02891792 0.21040797 0.48349997 1584937
-0.026826743 0.21167576 0.48639998 1649445
-0.024536684 0.21146367 0.48589998 1912100
-0.022274034 0.21146891 0.48589998 1583135
-0.020015337 0.21151736 0.486 1649698
-0.017751904 0.21152203 0.486 1649698
-0.015485137 0.21148285 0.48589998 1715751
-0.013219167 0.21144339 0.4858 1716523
-0.010951748 0.21136011 0.48559999 1519144
-0.008686075 0.21127656 0.48539999 1584167
-0.0064075966 0.21071389 0.48409998 1584167
-0.0041222638 0.20919335 0.4806 1453351
-0.0018745492 0.20823832 0.47839999 1649960
0.0003522253 0.20697826 0.47549999 1518374
0.0025536648 0.20584849 0.47289997 1386788
0.004746024 0.20537138 0.4718 1255204
0.0068869693 0.20367512 0.46789998 1584167
0.0090478063 0.20324095 0.46689999 1649960
0.011216184 0.20311119 0.4666 1583905
0.013269866 0.20128345 0.46239999 1319963
0.015434527 0.20141432 0.46269998 1122331
0.017575378 0.20124021 0.4623 1518374
0.019725295 0.20119639 0.46219999 1320997
0.021879008 0.20119585 0.46219999 1255974
0.024032691 0.20119502 0.46219999 1519146
0.026186349 0.20119391 0.46219999 1649960
0.028622018 0.20319492 0.46679997 1649960
0.030961953 0.20428149 0.4693 1453351
0.033176802 0.20445368 0.46969998 1584939
0.0355459 0.20549619 0.47209999 1519144
0.037745398 0.2054937 0.47209999 1387556
0.03996174 0.20557801 0.47229999 1978923
0.042045951 0.20500918 0.47099999 1781797
0.044324592 0.20539764 0.47189999 1781284
0.04639462 0.20482829 0.47059998 1781284
0.048545349 0.20465046 0.4702 1781284
0.050703011 0.20451586 0.46989998 1781284
0.052880265 0.20446809 0.4698 1649958
0.055419829 0.20576921 0.47279999 1716523
0.058121242 0.20754877 0.47689998 1650730
0.061126407 0.21024191 0.4831 1913900
0.064084195 0.21258651 0.4885 1715751
0.066657402 0.21353821 0.49069998 1649958
0.069461681 0.21514235 0.49439999 1781033
0.071777664 0.21517964 0.49449998 1781033
0.074109361 0.21526019 0.49469998 1715753
0.076458164 0.21538401 0.49499997 1649960
0.078793652 0.2154641 0.49519998 1518372
0.081196301 0.215718 0.49579999 1716004
0.083402209 0.21544957 0.49519998 1584937
0.085706167 0.21544199 0.49519998 1453353
0.087458938 0.21408555 0.4921 1519146
0.089693286 0.21394706 0.49179998 1716525
0.091288723 0.21232937 0.48809999 1848111
0.09296453 0.21097258 0.48499998 1913904
0.095200226 0.21092068 0.4849 1978925
0.097454868 0.21091209 0.4849 1781544
0.099729806 0.2109468 0.48499998 1584935
0.1020475 0.21106832 0.48529997 1519144
0.10505548 0.21258137 0.48879999 1584937
0.10732724 0.21257201 0.48879999 1388071
0.10962116 0.21260598 0.48889998 1453862
0.11186998 0.21255286 0.48879999 1453602
0.11411759 0.21249956 0.4887 1650209
0.11636401 0.21244615 0.48859999 1716002
0.11868209 0.21252303 0.48879999 1781795
0.12092752 0.21246934 0.4887 1519144
0.12226421 0.21085046 0.48499998 1584937
0.12346359 0.20905773 0.48089999 1386786
0.1245985 0.2072216 0.47669998 1584418
0.12675822 0.20712426 0.47649997 1386786
0.12894288 0.20707029 0.47639999 1255970
0.13046564 0.20597316 0.47389999 1518372
0.13176899 0.2045718 0.4707 1519144
0.132957 0.20304012 0.46719998 1847337
0.13509563 0.20298608 0.46709999 1584165
0.13623396 0.20145452 0.46359998 1781031
0.13835448 0.20140044 0.46349999 1977640
0.14044347 0.20130286 0.46329999 1846054
0.14259198 0.20129214 0.46329999 1846054
0.14474024 0.20128138 0.46329999 1912098
0.14685656 0.20122717 0.4632 2044454
0.14897172 0.20117293 0.46309999 1781284
0.1510205 0.20103183 0.4628 1649698
0.15306622 0.20089068 0.46249998 1649698
0.15500832 0.2006193 0.4619 1649698
0.15701266 0.20043477 0.46149999 1714719
0.15904759 0.20029369 0.4612 1583903
0.16107954 0.20015268 0.46089998 1649698
0.16293146 0.19979459 0.4601 1649698
0.16477577 0.19943653 0.45929998 1715491
0.1668669 0.19938254 0.45919999 1452319
0.16954574 0.20002323 0.46069998 1847075
0.17179115 0.20014295 0.461 1715491
0.17396371 0.20017588 0.46109998 1847077
0.17625161 0.20033909 0.46149999 1518625
0.1788523 0.20084964 0.46269998 1649958
0.18099463 0.20083936 0.46269998 1847337
0.18305764 0.20074235 0.46249998 1781544
0.18511872 0.20064546 0.4623 1716004
0.18693478 0.20028828 0.46149999 1979174
0.18726847 0.19836894 0.45709997 1584416
0.18913577 0.19809891 0.45649999 1649958
0.18999195 0.19678758 0.4535 1518372
0.19187923 0.19656132 0.45299998 1584165
0.1919634 0.19451284 0.44829997 1518374
0.19434133 0.19480763 0.449 1715755
0.19471338 0.19310682 0.44509998 1781548
0.19509356 0.19144967 0.44129997 1518376
0.19709137 0.19139798 0.44119999 1583656
0.19917858 0.19143321 0.44129997 1649958
0.19994441 0.19021063 0.43849999 1847590
0.20174372 0.18998601 0.43799999 1715751
0.20251498 0.18880737 0.43529999 1386788
0.20471786 0.18897353 0.4357 1781546
0.20678215 0.18900976 0.43579999 1584167
0.20870376 0.1889161 0.43559998 1649958
0.21067198 0.18886602 0.4355 1453349
0.21088123 0.187255 0.43179998 1453349
0.2128312 0.18720543 0.43169999 1387556
0.21478035 0.18715608 0.43159997 1518372
0.21647766 0.1868902 0.43099999 1650211
0.21872711 0.1871015 0.43149999 1519395
0.22077681 0.1871396 0.43159997 1584935
0.22401486 0.18817523 0.43399999 1650728
0.22763988 0.18951456 0.43709999 1978923
0.2312413 0.19081071 0.44009998 1781544
0.23428778 0.19163021 0.442 1715751
0.23874232 0.19357716 0.4465 1715238
0.24275342 0.1951341 0.45009997 1912617
0.24500322 0.1952607 0.45039999 1912617
0.2472012 0.19534425 0.4506 2043686
0.24934606 0.19538473 0.45069999 2241065
0.25149223 0.19542554 0.4508 1912100
0.2536397 0.19546668 0.45089999 1780261
0.25397363 0.19412097 0.44779998 1781544
0.25456509 0.19299236 0.4452 1781544
0.25668928 0.19303454 0.44529998 1716004
0.25643232 0.19129972 0.44129997 1584935
0.25830594 0.19116919 0.44099998 1519146
0.25887844 0.19008534 0.43849999 1912621
0.25895217 0.18865505 0.43519998 1649447
0.26097462 0.18865563 0.43519998 1847337
0.26299766 0.18865655 0.43519998 1453349
0.26502118 0.18865786 0.43519998 1387556
0.26716802 0.18874623 0.43539998 1519142
0.27135763 0.19026555 0.43889999 1650211
0.27651471 0.19243553 0.44389999 1518625
0.2827231 0.19529961 0.45049998 1781797
0.28659123 0.19651678 0.4533 1847588
0.29290622 0.19938183 0.45989999 1650209
0.29819271 0.20151037 0.4648 1519395
0.30339649 0.20355271 0.46949998 1978923
0.30571583 0.20364454 0.46969998 1715240
0.30784118 0.20360677 0.46959999 1715489
0.30970237 0.20339598 0.4691 1650463
0.3114931 0.20314223 0.46849999 1584670
0.31321219 0.20284557 0.46779999 1584416
0.31479073 0.20246257 0.46689999 1846305
0.31595439 0.20181982 0.46539998 1714973
0.31758335 0.20148103 0.4646 1583903
0.31968755 0.20144619 0.46449998 1386788
0.32054445 0.20063117 0.46259999 1518376
0.32250065 0.20051049 0.4623 1386790
0.32185653 0.19878533 0.45829999 1320995
0.32365024 0.19857867 0.4578 1452068
0.32202429 0.19629019 0.45249999 1781031
0.32077941 0.19426222 0.44779998 1715751
0.32266393 0.19414333 0.44749999 1649960
0.32454666 0.19402488 0.4472 1123618
0.32482061 0.19295225 0.4447 1584169
0.32470453 0.19166295 0.44169998 1387306
0.32456124 0.19037393 0.43869999 1190444
0.324763 0.18930212 0.43619999 1124651
0.32689029 0.18935902 0.43629998 1322544
0.3269839 0.18824442 0.4337 1585200
-0.34265855 0.247481 0.56639999 15181451
-0.34004617 0.24748424 0.56639999 16776429
-0.33397901 0.24495366 0.56059998 16711671
-0.32642889 0.24128738 0.55219996 16711673
-0.31596541 0.23539291 0.53869998 16711675
-0.30970028 0.23255748 0.53219998 16711675
-0.3014749 0.22819288 0.52219999 16711675
-0.29402924 0.22435285 0.51339996 16711675
-0.28933519 0.22256704 0.50929999 16711675
-0.28687689 0.22248581 0.50909996 16711675
-0.28442076 0.222405 0.50889999 16711675
-0.2800822 0.22083862 0.50529999 16711675
-0.2763817 0.21975324 0.50279999 16711675
-0.27401266 0.21971713 0.50269997 16711675
-0.26986125 0.21823898 0.49929997 16383995
-0.26745617 0.21815982 0.4991 2902596
-0.26531878 0.21829955 0.49939999 2573890
-0.26286283 0.21817735 0.4991 2572861
-0.26004434 0.21774943 0.49809998 2374451
-0.25801137 0.21797752 0.49859998 2374451
-0.25556362 0.21785623 0.49829999 2111794
-0.253068 0.21769151 0.49789998 2243380
-0.25012285 0.21713355 0.4966 2374964
-0.24763884 0.21696934 0.4962 2308658
-0.24520804 0.21684915 0.49589998 2176302
-0.24282907 0.21677293 0.4957 2571062
-0.24045193 0.21669699 0.4955 2439476
-0.2381247 0.21666498 0.49539998 2571062
-0.23694098 0.21768297 0.49769998 2636342
-0.23469885 0.21773903 0.49779999 2307890
-0.23483677 0.22002618 0.50299996 2374451
-0.23358625 0.22104526 0.50529999 2177072
-0.23240602 0.22215214 0.50779998 2176302
-0.23007004 0.22216563 0.50779998 2044969
-0.22777879 0.22222309 0.5079 2045739
-0.22553091 0.22232449 0.50809997 1716774
-0.22332495 0.22246987 0.50839996 1782829
-0.22102922 0.22252792 0.50849998 2111794
-0.21985056 0.22372408 0.51120001 1979695
-0.21851923 0.2247892 0.51359999 2177076
-0.2193962 0.22817446 0.52129996 2175793
-0.21991073 0.23125395 0.52829999 2307379
-0.22200723 0.23608506 0.53929996 2110513
-0.22111213 0.2378086 0.54320002 1979697
-0.22247487 0.24202818 0.5528 1848109
-0.22092423 0.24313965 0.5553 1650732
-0.21832784 0.24311292 0.55519998 2111283
-0.21608184 0.24348044 0.55599999 1979693
-0.21098639 0.24060734 0.54939997 2044716
-0.20640673 0.23825946 0.54399997 1979946
-0.20191397 0.23595515 0.53869998 1848620
-0.19839528 0.23474568 0.5359 1782829
-0.19439022 0.23292284 0.53170002 1848109
-0.19168697 0.2326331 0.53099996 1913904
-0.18731488 0.23028417 0.52560002 1913904
-0.18475105 0.23012576 0.52520001 1848111
-0.18222526 0.23001118 0.52489996 1978925
-0.1787428 0.22866955 0.52179998 2044716
-0.17653887 0.22894937 0.52239996 2176302
-0.17306241 0.22756369 0.51919997 1913902
-0.17056838 0.22744894 0.51889998 1651245
-0.16807671 0.22733422 0.51859999 1519659
-0.16558746 0.22721946 0.5183 1782831
-0.16398217 0.22833221 0.52079999 1650732
-0.16275671 0.23001511 0.52459997 1781546
-0.1613124 0.23143515 0.52779996 1847337
-0.15887485 0.23145208 0.52779996 1716521
-0.15643689 0.23146895 0.52779996 1782827
-0.15306486 0.2300823 0.52459997 1651243
-0.14972192 0.22869536 0.52139997 1519659
-0.14722753 0.2285803 0.52109998 1585452
-0.14445756 0.22802642 0.51980001 1651245
-0.14202714 0.22799882 0.51969999 1848624
-0.1395703 0.22792724 0.51949996 1848624
-0.13714135 0.22789948 0.5194 1913904
-0.13479066 0.2280032 0.51959997 2111281
-0.13152049 0.22652704 0.51620001 2045739
-0.12925698 0.2267621 0.51669997 2045739
-0.12696385 0.22695325 0.51709998 1848107
-0.12375116 0.22547632 0.51370001 1848107
-0.12142011 0.22557931 0.51389998 1848107
-0.11498673 0.21791214 0.4964 1848109
-0.11225637 0.21709241 0.49449998 1519142
-0.10992127 0.21701881 0.49429998 1978923
-0.10756583 0.21690111 0.49399999 1912617
-0.10510621 0.21656373 0.49319997 1781797
-0.1027787 0.2164896 0.493 1781797
-0.10053419 0.21659093 0.49319997 1847590
-0.098227657 0.21656036 0.49309999 1781797
-0.095941134 0.21657354 0.49309999 1650728
-0.094318986 0.21812384 0.4966 1650730
-0.092052512 0.21822457 0.49679998 1716525
-0.089964457 0.21876441 0.498 1584939
-0.08767128 0.21882086 0.49809998 1584939
-0.085393935 0.21892104 0.49829999 1649962
-0.083081022 0.21893315 0.49829999 1978927
-0.080767743 0.21894503 0.49829999 1847341
-0.077540949 0.21640813 0.49249998 1847341
-0.074871898 0.2153209 0.48999998 1584167
-0.071573846 0.2122997 0.4831 1847339
-0.068741396 0.2105085 0.479 1847339
-0.06611336 0.20924433 0.4761 1978923
-0.063928023 0.20934227 0.4763 1848107
-0.061740525 0.20943998 0.47649997 1519142
-0.059525885 0.20944954 0.47649997 1650730
-0.057383116 0.20972264 0.47709998 1716523
-0.055500422 0.21100658 0.47999999 1650981
-0.053313036 0.21119134 0.4804 1650979
-0.051121656 0.21137586 0.48079997 1584935
-0.048916124 0.2115162 0.48109999 1716521
-0.046707544 0.21165626 0.48139998 1453349
-0.044486679 0.21175213 0.48159999 1847337
-0.042272482 0.21189167 0.48189998 1715753
-0.04005526 0.21203101 0.4822 1781546
-0.037842847 0.21221398 0.48259997 2044718
-0.035619125 0.2123528 0.48289999 1781546
-0.033392392 0.2124913 0.48319998 1649960
-0.031162662 0.21262956 0.48349997 1519146
-0.028912006 0.21263559 0.48349997 1190694
-0.026826592 0.21396078 0.48649999 1519655
-0.024546456 0.21383436 0.48619998 1650981
-0.022282692 0.21383961 0.48619998 1715491
-0.020018766 0.21384454 0.48619998 1583652
-0.017751038 0.21380524 0.48609999 1715240
-0.015480909 0.21372163 0.48589998 1649960
-0.013212509 0.21363775 0.48569998 1518374
-0.010945845 0.21355356 0.48549998 1453351
-0.0086809304 0.2134691 0.48529997 1584935
-0.0063502993 0.21114099 0.47999999 1519142
-0.0041178046 0.21131985 0.4804 1453349
-0.0018599725 0.209079 0.47529998 1453351
0.00035429574 0.20912531 0.4754 1255974
0.0025544332 0.20793958 0.4727 1453099
0.004749598 0.20763338 0.472 1254950
0.0068882364 0.20583117 0.46789998 1715240
0.0090526687 0.20548041 0.46709999 1583654
0.011221697 0.20534927 0.46679997 1386273
0.013362125 0.20482197 0.46559998 1189147
0.015444683 0.20367852 0.463 860182
0.017582852 0.20345856 0.46249998 1320480
0.019733435 0.20341435 0.46239999 1386788
0.021883069 0.20336984 0.4623 1386788
0.024036951 0.20336905 0.4623 1255202
0.026190804 0.20336799 0.4623 1715753
0.028626654 0.2053902 0.46689999 1649958
0.030966781 0.20648834 0.46939999 1584165
0.033167697 0.20657443 0.46959999 1583652
0.035566166 0.20780395 0.47239998 1649447
0.03777479 0.20784552 0.4725 1781033
0.040035032 0.20815074 0.47319999 1715240
0.042239223 0.20814778 0.47319999 1649958
0.044377573 0.20783664 0.4725 1716004
0.046637446 0.20809706 0.47309998 1847590
0.048840858 0.20809332 0.47309998 1650211
0.051054936 0.20813332 0.47319999 1650211
0.053258568 0.20812906 0.47319999 1584165
0.055766799 0.20926811 0.47579998 1715753
0.059079029 0.21322167 0.48479998 1584167
0.062082708 0.21581143 0.49069998 1649960
0.065429762 0.21936834 0.49879998 1649960
0.067765415 0.21940657 0.4989 1584418
0.070509218 0.22071986 0.50189996 1584418
0.072845362 0.2207136 0.50189996 1650211
0.074567162 0.21890417 0.49779999 1584418
0.076868378 0.21885349 0.49769998 1781544
0.079152547 0.21875864 0.49749997 1715751
0.081254557 0.21817993 0.4962 1649960
0.083377913 0.21768893 0.49509999 1584167
0.085110083 0.21623048 0.49179998 1847341
0.087006822 0.21525554 0.48959997 1781548
0.088882871 0.2142805 0.4874 1519146
0.091243163 0.21449229 0.48789999 1584939
0.092898719 0.21307734 0.48469999 1650732
0.095152482 0.21306901 0.48469999 1650730
0.097406007 0.21306047 0.48469999 1781544
0.099700406 0.2131397 0.4849 1715751
0.10203849 0.21330661 0.48529997 1649445
0.10504624 0.21483588 0.48879999 1584167
0.10731783 0.21482661 0.48879999 1255974
