# .PCD v0.7 - Point Cloud Data file format
VERSION 0.7
FIELDS x y z rgb
SIZE 4 4 4 4
TYPE F F F U
COUNT 1 1 1 1
WIDTH 1170
HEIGHT 1
VIEWPOINT 0 0 0 1 0 0 0
POINTS 1170
DATA ascii
0.047716577 0.04344359 0.21409999 67846
0.04821578 0.043441888 0.21409999 396811
0.048714928 0.043440174 0.21409999 725516
0.04921402 0.043438442 0.21409999 857102
0.049713068 0.043436702 0.21409999 1185814
0.050212052 0.043434944 0.21409999 1514779
0.050710987 0.043433178 0.21409999 1909539
0.051209863 0.043431394 0.21409999 2633262
0.051660389 0.04338903 0.2139 3554364
0.052158687 0.043387219 0.2139 3225399
0.0526077 0.043344833 0.2137 5658970
0.053055719 0.043302432 0.21349999 9672343
0.053502753 0.043260027 0.21329999 6052699
0.053898171 0.043177053 0.2129 6250078
0.054215036 0.043033235 0.2122 6250078
0.054554347 0.042909689 0.21159999 6315871
0.054786749 0.042705033 0.21059999 6250331
0.055276915 0.042703159 0.21059999 6184538
0.055608165 0.042579614 0.20999999 6184538
0.05598997 0.042496618 0.2096 6052952
0.056262072 0.042332515 0.20879999 5987159
0.056584772 0.042208973 0.20819999 5987159
0.056904614 0.042085432 0.2076 6052180
0.057304531 0.042022701 0.20729999 6052180
0.057786632 0.042020775 0.20729999 5921364
0.058212455 0.0419783 0.20709999 5921364
0.058693975 0.041976362 0.20709999 5855828
0.059175447 0.04197441 0.20709999 5855828
0.059599251 0.04193192 0.2069 5855828
0.060080133 0.041929953 0.2069 5790035
0.060502432 0.041887451 0.2067 5724244
0.060982741 0.041885465 0.2067 5724244
0.061462998 0.041883476 0.2067 5724244
0.061943196 0.041881476 0.2067 5658451
0.062423341 0.041879468 0.2067 5658451
0.062903434 0.041877452 0.2067 5724244
0.06338346 0.041875433 0.2067 5790037
0.063801631 0.041832883 0.20649999 5790037
0.064281091 0.041830853 0.20649999 5855830
0.064823218 0.04186932 0.2067 5790037
0.065303013 0.041867267 0.2067 5855830
0.065782763 0.041865215 0.2067 5921623
0.066262469 0.041863155 0.2067 5921623
0.066806681 0.041901585 0.2069 5855830
0.067286722 0.041899502 0.2069 5855830
0.067832224 0.041937921 0.20709999 5855830
0.068378597 0.041976329 0.20729999 5855830
0.068859406 0.041974228 0.20729999 5855577
0.069407061 0.042012617 0.2075 5987163
0.069921903 0.042030755 0.2076 5987163
0.070471071 0.042069133 0.2078 5921370
0.071021095 0.042107493 0.20799999 5855577
0.071572021 0.042145852 0.20819999 5921370
0.072123796 0.042184204 0.2084 5921372
0.072606772 0.042182058 0.2084 5987165
0.073229983 0.04226087 0.20879999 6118751
0.073713787 0.042258721 0.20879999 5987165
0.074197516 0.042256564 0.20879999 6118751
0.074824281 0.042335358 0.20919999 6118751
0.075380854 0.042373665 0.2094 6118751
0.076010734 0.042452432 0.20979999 6118751
0.07671535 0.042571653 0.2104 5856349
0.077349313 0.042650405 0.21079999 5856349
0.078058913 0.0427696 0.21139999 5987935
0.078771248 0.042888787 0.212 5987935
0.079523705 0.043028191 0.21269999 6053728
0.079940759 0.042985518 0.21249999 6053728
0.080432557 0.042983305 0.21249999 6119521
0.081076607 0.043061998 0.2129 6185314
0.081799112 0.043181129 0.21349999 6251107
0.082524329 0.043300252 0.21409999 6514279
0.083097175 0.043338474 0.21429999 6974832
0.083748907 0.04341713 0.2147 6974832
0.084441684 0.043515995 0.21519999 6909039
0.085018307 0.043554194 0.2154 6909039
0.085595809 0.043592393 0.2156 6777453
0.086094335 0.043590151 0.2156 6777453
0.086673118 0.043628342 0.21579999 6777453
0.087252796 0.043666534 0.21599999 6777453
0.087914616 0.043745153 0.2164 6777453
0.088578224 0.043823771 0.21679999 6777453
0.089202553 0.043882165 0.21709999 6777453
0.089786902 0.043920342 0.2173 6777453
0.090455234 0.043998946 0.21769999 6711660
0.091041796 0.044037111 0.21789999 6711660
0.091545224 0.044034872 0.21789999 6711660
0.092048623 0.044032633 0.21789999 6645867
0.09272185 0.044111226 0.2183 6711660
0.093226075 0.044108991 0.2183 6711660
0.093730286 0.044106759 0.2183 6645867
0.007511741 0.058598943 0.285 5856347
0.0081079071 0.058084864 0.2825 5856347
0.0087699611 0.058084775 0.2825 5724761
0.0094053037 0.057920173 0.28169999 5790554
0.010054756 0.057858344 0.2814 5724761
0.01071422 0.057858165 0.2814 5658968
0.011345385 0.057714034 0.2807 5724761
0.011968982 0.057549309 0.27989998 5658968
0.012593336 0.057405118 0.27919999 5790554
0.013200162 0.057199221 0.2782 5790554
0.013797313 0.056972735 0.2771 5790554
0.014394509 0.056766778 0.27609998 5790554
0.014948873 0.05641688 0.2744 5790554
0.015495253 0.056066949 0.27269998 5856347
0.016033655 0.055716999 0.271 5856347
0.016668638 0.055716544 0.271 5790554
0.017175904 0.055304866 0.26899999 5724761
0.017673777 0.054893166 0.26699999 5658970
0.018169116 0.05450201 0.2651 5593177
0.018676803 0.054172512 0.26350001 5658970
0.019184288 0.053863551 0.26199999 5790556
0.019722508 0.053657357 0.26100001 5725535
0.020310557 0.053595044 0.26069999 5857121
0.020873107 0.053471044 0.26010001 5397603
0.021482378 0.053470358 0.26010001 3621192
0.022091622 0.053469647 0.26010001 2372416
0.022700846 0.053468909 0.26010001 2372416
0.023310041 0.053468142 0.26010001 2241345
0.023946799 0.05352902 0.2604 2109759
0.024556646 0.053528208 0.2604 1913152
0.025224453 0.0536507 0.26100001 1913152
0.025865337 0.053711489 0.2613 1912898
0.026517736 0.053792812 0.2617 1912898
0.027192706 0.053915206 0.26229998 1978691
0.027838657 0.053975921 0.2626 1978691
0.028453469 0.053974938 0.2626 2044738
0.029134668 0.054097246 0.26319999 2044738
0.029818639 0.054219529 0.2638 1913152
0.030482311 0.054300681 0.2642 1913152
0.031171361 0.0544229 0.26479998 1978945
0.031863183 0.05454509 0.26539999 2044738
0.032533295 0.054626152 0.2658 2110531
0.032594025 0.053700175 0.2613 1978945
0.033205513 0.05369899 0.2613 1978945
0.033816952 0.053697783 0.2613 1978945
0.032834526 0.048617285 0.2366 1913152
0.033289194 0.048472248 0.2359 1978945
0.033769242 0.04836829 0.23539999 1978945
0.034246914 0.048264321 0.2349 1978945
0.034677759 0.048098687 0.2341 1913152
0.035225201 0.048097413 0.2341 1715001
0.035619792 0.047890663 0.2331 1320243
0.036056209 0.047745548 0.2324 1057069
0.036442067 0.047538772 0.2314 1122862
0.036871146 0.047393627 0.2307 1385005
0.03729691 0.047248468 0.22999999 1319212
0.037719361 0.047103297 0.22929999 1319212
0.038121805 0.046937574 0.22849999 1253419
0.038537387 0.046792384 0.2278 1253419
0.039069705 0.046790957 0.2278 1385005
0.039480284 0.046645742 0.2271 1647915
0.039887547 0.046500515 0.22639999 3358533
0.040291492 0.04635527 0.22569999 3423811
0.040655941 0.046168949 0.22479999 3094846
0.04101615 0.045982622 0.22389999 3028281
0.041372102 0.045796283 0.22299999 2962488
0.041723795 0.045609944 0.22209999 2830904
0.042033207 0.045382526 0.221 2765111
0.042375937 0.045196179 0.2201 2765111
0.042889789 0.045194622 0.2201 2699318
0.043186672 0.044967189 0.219 2699318
0.04347837 0.04473976 0.21789999 2304560
0.043825451 0.044573918 0.21709999 2107181
0.044189163 0.044428602 0.2164 1647915
0.044570204 0.04430382 0.21579999 1450536
0.044990174 0.044220075 0.2154 1121833
0.045387115 0.044115808 0.2149 1121833
0.04580301 0.044032048 0.2145 1253165
0.046303347 0.044030391 0.2145 1318958
0.046759985 0.043987665 0.21429999 1384741
0.047259733 0.043985978 0.21429999 2060
0.047714878 0.043943226 0.21409999 1796
0.048214063 0.043941513 0.21409999 199432
0.048713196 0.043939788 0.21409999 528137
0.049212281 0.043938041 0.21409999 791309
0.049711302 0.043936279 0.21409999 988435
0.050210278 0.043934513 0.21409999 1383193
0.050709199 0.043932725 0.21409999 1777953
0.05120806 0.043930922 0.21409999 2370090
0.051658571 0.043888081 0.2139 3094326
0.052156869 0.043886255 0.2139 2962740
0.052605856 0.043843385 0.2137 5001810
0.053053875 0.043800507 0.21349999 6186084
0.053500902 0.043757617 0.21329999 6118749
0.053896312 0.04367369 0.2129 6184542
0.054213151 0.043528222 0.2122 6184538
0.054552466 0.043403268 0.21159999 6250331
0.054784868 0.043196265 0.21059999 6184538
0.055275012 0.043194365 0.21059999 6250331
0.055606261 0.043069407 0.20999999 6052952
0.05588121 0.042903427 0.20919999 5987159
0.056206279 0.042778473 0.2086 5987159
0.056528497 0.042653508 0.20799999 5987159
0.056875274 0.042549055 0.2075 5987157
0.057302598 0.04250611 0.20729999 5921364
0.057728942 0.042463169 0.20709999 5855571
0.058210511 0.04246122 0.20709999 5855571
0.058692019 0.042459261 0.20709999 5855571
0.059173483 0.042457297 0.20709999 5855571
0.05959728 0.042414322 0.2069 5790035
0.060020078 0.04237134 0.2067 5658449
0.060500447 0.042369351 0.2067 5724244
0.060980748 0.04236735 0.2067 5724244
0.061401516 0.042324349 0.20649999 5724244
0.061881252 0.042322338 0.20649999 5658451
0.06236092 0.042320315 0.20649999 5724244
0.062840529 0.042318281 0.20649999 5724244
0.063320093 0.042316247 0.20649999 5724244
0.06379959 0.042314202 0.20649999 5855830
0.064216778 0.042271167 0.20629999 5790037
0.064695708 0.042269111 0.20629999 5724244
0.065237768 0.042308021 0.20649999 5790037
0.065717041 0.042305954 0.20649999 5855830
0.06619627 0.042303871 0.20649999 5855830
0.066740029 0.042342763 0.2067 5855830
0.067284636 0.042381637 0.2069 5921623
0.067830123 0.042420495 0.20709999 5921623
0.068376489 0.042459354 0.20729999 5921623
0.068857297 0.042457242 0.20729999 5987416
0.069404937 0.042496074 0.2075 5987416
0.06991978 0.042514428 0.2076 5921370
0.07046894 0.04255325 0.2078 5921370
0.071018957 0.04259206 0.20799999 5855577
0.071569875 0.042630866 0.20819999 5921370
0.07212165 0.042669665 0.2084 5921370
0.072604619 0.042667504 0.2084 5987163
0.07322783 0.042747233 0.20879999 6118751
0.073711619 0.042745069 0.20879999 5987165
0.074195355 0.042742893 0.20879999 5987165
0.074822113 0.042822596 0.20919999 5987165
0.075378664 0.04286135 0.2094 5987165
0.076008543 0.04294103 0.20979999 6184544
0.076713167 0.043061636 0.2104 5987935
0.077347115 0.043141294 0.21079999 5987935
0.078056708 0.043261878 0.21139999 5987935
0.078769043 0.04338244 0.212 5987935
0.07952147 0.043523453 0.21269999 6053728
0.080013767 0.043521218 0.21269999 6053728
0.080733128 0.04364175 0.21329999 6053728
0.081531361 0.043803181 0.21409999 6119521
0.082180001 0.043882765 0.2145 6316902
0.082830444 0.043962345 0.2149 6909039
0.083521463 0.044062365 0.2154 6974832
0.084097721 0.044101018 0.2156 6974832
0.084753335 0.044180568 0.21599999 6909039
0.085331813 0.044219207 0.21619999 6909039
0.085911155 0.044257842 0.2164 6909039
0.086411528 0.044255573 0.2164 6711660
0.086911857 0.044253308 0.2164 6646637
0.087573692 0.044332832 0.21679999 6778223
0.088074856 0.044330567 0.21679999 6646637
0.088698529 0.044389643 0.21709999 6646637
0.089364633 0.044469163 0.2175 6646637
0.089949913 0.044507779 0.21769999 6580844
0.090536073 0.044546407 0.21789999 6646637
0.091123104 0.044585023 0.2181 6580844
0.091626994 0.044582762 0.2181 6646637
0.09213084 0.044580501 0.2181 6580844
0.092719607 0.044619128 0.2183 6646637
0.093223833 0.044616878 0.2183 6646637
0.093856826 0.044675931 0.21859999 6580844
0.094448015 0.044714563 0.21879999 6580844
0.0081078345 0.058744904 0.2825 5724761
0.0087698596 0.058744822 0.2825 5658968
0.0094051706 0.058578338 0.28169999 5724761
0.010054593 0.058515809 0.2814 5658968
0.010714027 0.058515638 0.2814 5593175
0.011345161 0.058369871 0.2807 5658968
0.01196873 0.058203273 0.27989998 5658968
0.012593053 0.05805745 0.27919999 5790554
0.013199852 0.057849213 0.2782 5724761
0.013796974 0.057620149 0.2771 5724761
0.014394141 0.057411853 0.27609998 5658968
0.014948477 0.057057977 0.2744 5658968
0.015494833 0.056704074 0.27269998 5790554
0.01603321 0.05635016 0.271 5790554
0.016668161 0.056349695 0.271 5724761
0.017175402 0.055933341 0.26899999 5724761
0.017673254 0.055516966 0.26699999 5658968
0.018298782 0.055516422 0.26699999 5658968
0.018676227 0.054788124 0.26350001 5658968
0.019205656 0.054538026 0.26229998 5724761
0.019721888 0.054267123 0.26100001 5659740
0.020309908 0.054204099 0.26069999 5659740
0.020896507 0.054141067 0.2604 5594210
0.021506455 0.054140378 0.2604 5067866
0.022090895 0.054077283 0.26010001 3489867
0.02270009 0.054076537 0.26010001 2766144
0.023309262 0.054075778 0.26010001 2110529
0.023945989 0.054137342 0.2604 2044736
0.02455581 0.054136518 0.2604 1978945
0.025223585 0.054260407 0.26100001 1978945
0.025864448 0.054321896 0.2613 1978691
0.026516818 0.05440414 0.2617 1978691
0.027191758 0.054527931 0.26229998 1978691
0.027869485 0.0546517 0.26289999 1978691
0.028484972 0.054650705 0.26289999 2044484
0.029166847 0.054774415 0.26350001 1978691
0.029817583 0.054835726 0.2638 1912898
0.030550446 0.055042509 0.26479998 1912898
0.031240875 0.055166129 0.26539999 2044484
0.031910066 0.055248138 0.2658 2044484
0.032532129 0.055246983 0.2658 2044484
0.032829847 0.054705393 0.26319999 2110277
0.033445749 0.054704189 0.26319999 1978945
0.034061611 0.054702964 0.26319999 1978945
0.032916591 0.049294539 0.23719999 2043968
0.033471424 0.049293321 0.23719999 2175554
0.033839732 0.049021937 0.2359 2175554
0.034274817 0.04885444 0.2351 2175554
0.034676488 0.048645366 0.2341 1913152
0.035223912 0.048644084 0.2341 1715001
0.035618484 0.048434988 0.2331 1320243
0.036054887 0.048288222 0.2324 1188655
0.036440726 0.048079103 0.2314 1122862
0.03686979 0.047932316 0.2307 1385005
0.037295539 0.047785506 0.22999999 1385005
0.037717968 0.047638688 0.22929999 1319210
0.038120404 0.047471087 0.22849999 1319210
0.038535967 0.047324251 0.2278 1516075
0.03906827 0.047322817 0.2278 1450282
0.039478827 0.047175951 0.2271 1516075
0.039886076 0.047029071 0.22639999 1647661
0.040290009 0.046882194 0.22569999 3687496
0.040654447 0.046693753 0.22479999 3358531
0.041014642 0.046505313 0.22389999 3094844
0.041370586 0.046316862 0.22299999 2897465
0.041722264 0.046128403 0.22209999 2830902
0.042031664 0.045898408 0.221 2633523
0.042374384 0.045709949 0.2201 2633523
0.042888224 0.045708381 0.2201 2633523
0.043185093 0.045478363 0.219 2633523
0.043476786 0.045248352 0.21789999 2501937
0.043823853 0.045080636 0.21709999 2172972
0.04418755 0.044933669 0.2164 1582122
0.044568583 0.044807471 0.21579999 1253157
0.044988547 0.044722781 0.2154 1187112
0.045343224 0.044575803 0.2147 1121319
0.045758646 0.044491097 0.21429999 1055786
0.046172153 0.044406392 0.2139 1318958
0.046671022 0.044404708 0.2139 1582122
0.047125723 0.044361491 0.2137 529434
0.047624018 0.044359781 0.2137 1798
0.048122257 0.044358056 0.2137 67848
0.048574936 0.044314802 0.21349999 330758
0.049072612 0.044313051 0.21349999 725516
0.049570229 0.044311281 0.21349999 922895
0.050067786 0.044309501 0.21349999 1186067
0.050517924 0.044266198 0.21329999 1514779
0.051014915 0.044264391 0.21329999 2106916
0.051511839 0.044262569 0.21329999 2633775
0.052008726 0.044260737 0.21329999 2502189
0.052456316 0.044217393 0.2131 5396568
0.052952621 0.04421553 0.2131 5988705
0.053348541 0.044130668 0.21269999 5857117
0.053793166 0.044087291 0.21249999 5922910
0.054057982 0.043898687 0.21159999 6250588
0.054395888 0.043772321 0.211 6184795
0.054678921 0.043604463 0.2102 6119002
0.05516813 0.04360256 0.2102 5987416
0.055498436 0.043476187 0.2096 6184538
0.055825867 0.043349814 0.20899999 5987159
0.056150462 0.043223437 0.2084 5987159
0.056472216 0.043097064 0.2078 5987159
0.056873351 0.043032911 0.2075 5987159
0.057300657 0.042989485 0.20729999 5921366
0.057726994 0.042946056 0.20709999 5855573
0.058208551 0.042944089 0.20709999 5921366
0.058690049 0.042942114 0.20709999 5921366
0.059171502 0.042940132 0.20709999 5855573
0.059595287 0.042896677 0.2069 5724244
0.060018085 0.042853214 0.2067 5658451
0.060498439 0.042851206 0.2067 5658451
0.060919728 0.042807732 0.20649999 5658451
0.061399505 0.042805705 0.20649999 5658451
0.061879221 0.042803679 0.20649999 5724244
0.062298488 0.042760182 0.20629999 5724244
0.062777631 0.042758137 0.20629999 5724244
0.063256718 0.042756084 0.20629999 5658451
0.063735746 0.042754028 0.20629999 5790037
0.064214721 0.04275196 0.20629999 5790037
0.064693645 0.042749885 0.20629999 5790037
0.065172501 0.042747799 0.20629999 5790037
0.065714963 0.042787157 0.20649999 5921623
0.066194184 0.04278506 0.20649999 5921623
0.066673338 0.042782955 0.20649999 5790037
0.067282528 0.042863715 0.2069 5921623
0.067828007 0.042903032 0.20709999 5921623
0.068374366 0.042942338 0.20729999 5987416
0.068855166 0.042940207 0.20729999 5987416
0.069402799 0.042979494 0.2075 5987416
0.069984995 0.043039482 0.2078 5921623
0.070466787 0.043037325 0.2078 5855830
0.071085095 0.043118007 0.20819999 5855577
0.071567714 0.043115843 0.20819999 5921370
0.072188698 0.043196507 0.2086 5921370
0.072741799 0.043235742 0.20879999 5987163
0.073295787 0.043274969 0.20899999 5856349
0.073850647 0.043314189 0.20919999 5790556
0.074335307 0.043311995 0.20919999 5856349
0.074891448 0.043351203 0.2094 5856349
0.075592443 0.043473203 0.20999999 5856349
0.076223709 0.043553796 0.2104 6053728
0.07700263 0.043717172 0.2112 6053728
0.077638417 0.043797735 0.21159999 5856349
0.078349859 0.04391969 0.2122 5987935
0.07917551 0.044103712 0.2131 5856349
0.079967864 0.044267025 0.2139 6053728
0.08046294 0.04426476 0.2139 6119521
0.081185058 0.044386651 0.2145 6119521
0.081947975 0.044529222 0.21519999 6185314
0.082599163 0.044609711 0.2156 6448488
0.083175063 0.044648811 0.21579999 6974832
0.083829373 0.044729277 0.21619999 7040625
0.084485486 0.044809744 0.2166 6974832
0.085064948 0.044848822 0.21679999 6909039
0.085566327 0.044846531 0.21679999 6909039
0.086186767 0.044906292 0.21709999 6909039
0.086688764 0.044904001 0.21709999 6777453
0.087190703 0.044901706 0.21709999 6646637
0.08777339 0.044940785 0.2173 6646637
0.088356949 0.044979848 0.2175 6580844
0.088859677 0.044977564 0.2175 6778223
0.089526705 0.045057986 0.21789999 6778223
0.090030268 0.045055699 0.21789999 6778223
0.090616889 0.045094766 0.2181 6580844
0.091120832 0.045092482 0.2181 6515051
0.091624729 0.045090202 0.2181 6646637
0.092128582 0.045087926 0.2181 6580844
0.092844754 0.045189012 0.21859999 6646637
0.09334968 0.045186739 0.21859999 6646637
0.093940429 0.045225807 0.21879999 6646637
0.094445758 0.045223549 0.21879999 6580844
0.0081077628 0.059404857 0.2825 5724761
0.0087449215 0.059236549 0.28169999 5724761
0.0093816677 0.059089232 0.28099999 5724761
0.010015126 0.058941882 0.28029999 5593175
0.010671953 0.058941711 0.28029999 5593175
0.01130048 0.058794308 0.27959999 5593175
0.011925717 0.058646873 0.2789 5658968
0.012529627 0.058415297 0.27779999 5724761
0.013133113 0.058204722 0.27680001 5724761
0.013711991 0.057910006 0.27539998 5724761
0.014305147 0.057699379 0.2744 5724761
0.014871816 0.057404615 0.273 5658968
0.015437591 0.057130843 0.27169999 5658968
0.015973596 0.056772947 0.26999998 5658968
0.01660618 0.056772485 0.26999998 5593175
0.017130204 0.056414541 0.2683 5593175
0.017652867 0.056077603 0.2667 5658968
0.018168017 0.05574064 0.2651 5658968
0.01867565 0.055403654 0.26350001 5724761
0.019205051 0.055150747 0.26229998 5724761
0.019721258 0.054876793 0.26100001 5658968
0.020309253 0.054813072 0.26069999 5790554
0.020895826 0.054749329 0.2604 5528669
0.021505745 0.054748639 0.2604 5660255
0.022090161 0.054684836 0.26010001 4607833
0.02269933 0.054684095 0.26010001 2831422
0.023308473 0.05468332 0.26010001 2241347
0.023945173 0.054745577 0.2604 2241347
0.024554968 0.05474475 0.2604 2110277
0.025222715 0.054870032 0.26100001 2044484
0.025863549 0.054932211 0.2613 1978691
0.026515888 0.055015385 0.2617 1978691
0.027190804 0.055140574 0.26229998 1978691
0.0278685 0.055265732 0.26289999 1978691
0.028483963 0.055264726 0.26289999 2109507
0.02916581 0.055389836 0.26350001 2175300
0.029816518 0.055451836 0.2638 2044484
0.030549349 0.055660952 0.26479998 1978691
0.03123975 0.055785958 0.26539999 2044484
0.031908911 0.055868894 0.2658 2044484
0.032530949 0.055867724 0.2658 1978691
0.032828648 0.055320054 0.26319999 2044484
0.033444528 0.055318844 0.26319999 2109507
0.034060363 0.055317607 0.26319999 2109507
0.032915376 0.049848426 0.23719999 2109761
0.033470184 0.049847201 0.23719999 2175554
0.033838484 0.04957277 0.2359 2175554
0.034273554 0.049403396 0.2351 2175554
0.034719642 0.049255021 0.23439999 2175554
0.035267748 0.049253721 0.23439999 2043966
0.035663005 0.049042277 0.23339999 1583415
0.036053549 0.04883083 0.2324 1385521
0.036439374 0.048619367 0.2314 1253935
0.036868419 0.048470933 0.2307 1319980
0.037294149 0.04832248 0.22999999 1385773
0.037667226 0.048110988 0.22899999 1450796
0.038085625 0.047962517 0.22829999 1319210
0.0385007 0.047814034 0.22759999 1450796
0.039032519 0.047812592 0.22759999 1319210
0.039442599 0.04766408 0.2269 1385003
0.039884601 0.047557574 0.22639999 1385003
0.040288515 0.047409043 0.22569999 2503224
0.040689111 0.047260497 0.22499999 3490119
0.041104712 0.047132958 0.2244 3292223
0.041443255 0.046921384 0.2234 2897465
0.041795865 0.046730813 0.2225 2830902
0.042106189 0.046498232 0.22139999 2830902
0.042449825 0.046307657 0.22049999 2765109
0.042964578 0.04630607 0.22049999 2765109
0.043262377 0.046073478 0.21939999 2567730
0.043614849 0.045903876 0.21859999 2238767
0.043902982 0.045671277 0.2175 2041388
0.044185933 0.045438673 0.2164 1582122
0.044566952 0.045311056 0.21579999 1253157
0.044986896 0.045225423 0.2154 1187112
0.04534157 0.045076799 0.2147 1121319
0.045756977 0.04499115 0.21429999 1121833
0.046170473 0.044905495 0.2139 1253419
0.046669323 0.0449038 0.2139 1319210
0.04707991 0.044818118 0.21349999 990245
0.047533151 0.044774409 0.21329999 2570
0.047985412 0.044730697 0.2131 2313
0.048436679 0.044686962 0.2129 199685
0.048932936 0.044685196 0.2129 528650
0.049429141 0.044683423 0.2129 857102
0.04992529 0.044681635 0.2129 988688
0.050374016 0.044637855 0.21269999 1185816
0.050869595 0.044636033 0.21269999 1712160
0.051365115 0.044634204 0.21269999 2370090
0.051860582 0.044632357 0.21269999 2106918
0.05235599 0.044630501 0.21269999 4079938
0.052801654 0.044586666 0.21249999 6185314
0.053221248 0.044521846 0.2122 5790554
0.05361408 0.044436034 0.21179999 5987933
0.053953901 0.044308256 0.2112 5988186
0.054290865 0.044180475 0.21059999 5988186
0.054624978 0.044052694 0.20999999 6119002
0.055113718 0.044050779 0.20999999 5987416
0.055443544 0.043922991 0.2094 5987416
0.055770516 0.043795202 0.20879999 5987416
0.056094639 0.043667421 0.20819999 5987159
0.056470275 0.043581583 0.2078 5987159
0.056871392 0.043516707 0.2075 5921366
0.057298694 0.043472804 0.20729999 5921366
0.057725023 0.043428887 0.20709999 5789780
0.058206569 0.043426905 0.20709999 5789780
0.058688063 0.043424923 0.20709999 5789780
0.059169509 0.043422922 0.20709999 5789780
0.059593283 0.043378979 0.2069 5658451
0.060016077 0.043335035 0.2067 5658451
0.06043788 0.043291081 0.20649999 5658451
0.060917705 0.04328905 0.20649999 5658451
0.061337993 0.043245088 0.20629999 5526865
0.061817247 0.043243043 0.20629999 5526865
0.062296439 0.04324099 0.20629999 5658451
0.062714711 0.04319701 0.2061 5724244
0.063193336 0.043194946 0.2061 5724244
0.063671887 0.043192871 0.2061 5790037
0.064150386 0.043190785 0.2061 5790037
0.064628847 0.043188699 0.2061 5790037
0.065107234 0.043186601 0.2061 5855830
0.065649211 0.043226406 0.20629999 5855830
0.066127963 0.043224294 0.20629999 5855830
0.066671222 0.04326408 0.20649999 5790037
0.067215353 0.043303851 0.2067 5790037
0.067825876 0.043385517 0.20709999 5855830
0.06837222 0.043425269 0.20729999 5855830
0.068853021 0.043423116 0.20729999 5921623
0.069400653 0.043462858 0.2075 5987416
0.069982834 0.043523528 0.2078 5921623
0.070532441 0.043563247 0.20799999 5921623
0.07108292 0.043602955 0.20819999 5987416
0.071703032 0.043684538 0.2086 5987416
0.072255723 0.043724224 0.20879999 5987416
0.072878957 0.043805789 0.20919999 6119002
0.073433869 0.04384546 0.2094 5856347
0.073989645 0.043885127 0.2096 5856347
0.074475221 0.04388291 0.2096 5856349
0.075103812 0.043964431 0.20999999 5856349
0.075806186 0.044087805 0.21059999 5987935
0.076583751 0.04425304 0.21139999 5856349
0.077364981 0.044418253 0.2122 5856349
0.078113139 0.044562515 0.2129 5856349
0.07890144 0.044727691 0.2137 5856349
0.079619072 0.04485099 0.21429999 5856349
0.080339432 0.044974275 0.2149 5987935
0.080836825 0.04497198 0.2149 6119521
0.081674784 0.045158021 0.21579999 6119521
0.082326479 0.045239419 0.21619999 6185314
0.08297997 0.045320809 0.2166 6448488
0.083558179 0.045360345 0.21679999 6777453
0.084176026 0.045420796 0.21709999 6909809
0.084756225 0.045460321 0.2173 6844016
0.085337296 0.04549985 0.2175 6909039
0.085919239 0.04553936 0.21769999 6909039
0.086422652 0.04553704 0.21769999 6778223
0.086926028 0.045534719 0.21769999 6646637
0.087429367 0.045532409 0.21769999 6778223
0.088013425 0.04557192 0.21789999 6646637
0.088517129 0.04556961 0.21789999 6580844
0.089102499 0.04560912 0.2181 6580844
0.089688733 0.045648631 0.2183 6580844
0.090193234 0.045646328 0.2183 6580844
0.090697683 0.045644019 0.2183 6580844
0.091327414 0.045704432 0.21859999 6515051
0.091916509 0.045743946 0.21879999 6580844
0.092421971 0.04574164 0.21879999 6580844
0.092927404 0.045739345 0.21879999 6515051
0.093432806 0.045737058 0.21879999 6515051
0.094024032 0.045776576 0.219 6580844
0.094529808 0.045774288 0.219 6515051
0.00874482 0.059894543 0.28169999 5658968
0.0093715182 0.05968181 0.2807 5724761
0.010000671 0.059511561 0.27989998 5593175
0.010656529 0.059511386 0.27989998 5658968
0.011271963 0.05929856 0.2789 5658968
0.011865601 0.059000663 0.2775 5658968
0.0124662 0.058766518 0.2764 5658968
0.013047401 0.058468565 0.27500001 5658968
0.013641946 0.058255624 0.27399999 5658968
0.014216154 0.057978872 0.27269998 5658968
0.014778811 0.057680838 0.27129999 5593175
0.015357623 0.057467822 0.2703 5658968
0.015896238 0.057127211 0.2687 5658968
0.016525745 0.057126749 0.2687 5724761
0.017072238 0.056849875 0.2674 5724761
0.017612623 0.05657297 0.26609999 5658968
0.018146897 0.056296039 0.26479998 5658968
0.018675067 0.056019098 0.26350001 5724761
0.019204445 0.055763386 0.26229998 5790554
0.019743294 0.055550177 0.2613 5724761
0.020308597 0.055421967 0.26069999 5724761
0.020895142 0.055357523 0.2604 5658970
0.021505034 0.055356823 0.2604 5724763
0.022089422 0.055292323 0.26010001 5857384
0.022698563 0.055291567 0.26010001 4475731
0.023307677 0.055290781 0.26010001 2832197
0.023944354 0.055353738 0.2604 2503232
0.024582407 0.055416673 0.26069999 2307140
0.02522184 0.055479586 0.26100001 2241347
0.025902232 0.05562748 0.2617 2175300
0.026545351 0.055690326 0.26199999 2175300
0.027252039 0.05588067 0.26289999 2175300
0.027931111 0.056007221 0.26350001 2241093
0.02854795 0.056006212 0.26350001 2175300
0.029242236 0.056153949 0.2642 2241093
0.029894557 0.05621665 0.26449999 2175300
0.030582856 0.056343079 0.2651 2109507
0.031285699 0.056490727 0.2658 2109507
0.031943761 0.05655333 0.26609999 2175300
0.032603186 0.0566159 0.26639998 2175300
0.033064429 0.056338429 0.2651 2306886
0.033684723 0.0563372 0.2651 2306886
0.034304984 0.056335948 0.2651 2306886
0.032914158 0.050402246 0.23719999 2109761
0.033356063 0.050231025 0.23639999 2241347
0.033837229 0.050123535 0.2359 2175554
0.034316011 0.050016023 0.23539999 2175554
0.034747969 0.049844757 0.23459999 2241347
0.035296518 0.049843445 0.23459999 2175552
0.035661675 0.049587168 0.23339999 1846587
0.036083229 0.04941586 0.23259999 1582900
0.036485251 0.049223296 0.23169999 1385521
0.036867041 0.049009483 0.2307 1451566
0.037292756 0.04885938 0.22999999 1451566
0.03766581 0.048645549 0.22899999 1516589
0.038084194 0.04849543 0.22829999 1450796
0.038499258 0.048345301 0.22759999 1516589
0.039031059 0.048343852 0.22759999 1450796
0.03944112 0.048193693 0.2269 1581868
0.039883107 0.048086006 0.22639999 1647661
0.040287007 0.047935829 0.22569999 1515816
0.040741842 0.047849361 0.2253 2371125
0.041139808 0.047699157 0.22459999 3358018
0.041497357 0.04750647 0.22369999 2963260
0.041850656 0.047313791 0.2228 3028281
0.04223774 0.047163572 0.22209999 3620418
0.042544503 0.046928402 0.221 3620418
0.0430604 0.046926804 0.221 3290940
0.043359362 0.04669163 0.2199 2698803
0.043693036 0.046498913 0.219 2238767
0.043982092 0.046263728 0.21789999 1909802
0.044265967 0.04602854 0.21679999 1582122
0.044606604 0.045857042 0.21599999 1384743
0.044985231 0.045728005 0.2154 1187112
0.045339897 0.045577735 0.2147 1055526
0.045755289 0.045491137 0.21429999 924454
0.046125606 0.045362081 0.2137 1121833
0.046623971 0.045360371 0.2137 1253419
0.047034081 0.045273744 0.21329999 1121833
0.047442283 0.045187112 0.2129 397331
0.047893595 0.045142915 0.21269999 2059
0.048389416 0.045141153 0.21269999 67846
0.048839226 0.045096938 0.21249999 462604
0.049334481 0.045095153 0.21249999 725516
0.049759336 0.045029689 0.2122 857102
0.05025379 0.045027874 0.2122 1054230
0.050819926 0.045089699 0.21249999 1514781
0.051242523 0.045024201 0.2122 2238506
0.05173682 0.045022354 0.2122 1843748
0.052231047 0.045020483 0.2122 3882559
0.052675538 0.044976175 0.212 6119521
0.053119037 0.044931848 0.21179999 5856347
0.053510919 0.044845089 0.21139999 5856347
0.053849809 0.044715904 0.21079999 5921623
0.054237392 0.044629138 0.2104 5987416
0.054519016 0.044457525 0.2096 6052952
0.055006813 0.044455592 0.2096 6184538
0.055335701 0.044326399 0.20899999 6052952
0.055715147 0.044239614 0.2086 5987159
0.056092691 0.044152826 0.20819999 5987159
0.056413971 0.044023629 0.2076 5921366
0.056869417 0.044000454 0.2075 5987159
0.057296723 0.043956064 0.20729999 5855573
0.057723042 0.043911673 0.20709999 5789780
0.05820458 0.043909676 0.20709999 5789780
0.058686059 0.043907672 0.20709999 5789780
0.059167489 0.043905653 0.20709999 5723987
0.05959126 0.043861233 0.2069 5658451
0.060014047 0.043816805 0.2067 5724244
0.06043585 0.04377237 0.20649999 5724244
0.060915656 0.043770324 0.20649999 5724244
0.061335947 0.043725882 0.20629999 5658451
0.061815187 0.043723818 0.20629999 5658451
0.06229436 0.043721747 0.20629999 5724244
0.062712647 0.043677289 0.2061 5790037
0.063191243 0.043675203 0.2061 5658451
0.063669793 0.043673113 0.2061 5658451
0.064148299 0.043671016 0.2061 5658451
0.064626731 0.043668911 0.2061 5855830
0.065105125 0.043666799 0.2061 5790037
0.065647088 0.043707047 0.20629999 5790037
0.066125825 0.04370492 0.20629999 5790037
0.066669092 0.043745153 0.20649999 5790037
0.067213222 0.043785378 0.2067 5790037
0.067758232 0.043825593 0.2069 5855830
0.068370067 0.04390816 0.20729999 5855830
0.068850853 0.043905992 0.20729999 5921623
0.069398485 0.04394618 0.2075 5921623
0.069980659 0.044007532 0.2078 5855830
0.070530251 0.044047695 0.20799999 5921623
0.071149006 0.044130206 0.2084 5855830
0.071769573 0.044212699 0.20879999 5855830
0.072391927 0.044295184 0.20919999 5856347
0.072946414 0.044335309 0.2094 5790554
0.073501781 0.044375431 0.2096 5790554
0.074058011 0.044415537 0.20979999 5724761
0.07454405 0.044413298 0.20979999 5856349
0.075316153 0.044580407 0.21059999 5856349
0.076091908 0.044747498 0.21139999 5856349
0.076871298 0.044914566 0.2122 5856349
0.077763736 0.045145109 0.21329999 5987935
0.078551136 0.045312136 0.21409999 5987935
0.079268366 0.045436822 0.2147 5790556
0.080099761 0.045624975 0.2156 5856349
0.080897883 0.045791939 0.2164 6053728
0.081398748 0.045789618 0.2164 6119521
0.082050942 0.045871925 0.21679999 6119521
0.082743019 0.045975387 0.2173 6251107
0.083322421 0.046015363 0.2175 6645865
0.083902709 0.046055336 0.21769999 6909037
0.084483884 0.046095304 0.21789999 6909809
0.085143916 0.046177577 0.2183 6844016
0.085648842 0.046175234 0.2183 6844016
0.086153693 0.046172883 0.2183 6646637
0.086658515 0.046170548 0.2183 6778223
0.087163277 0.046168208 0.2183 6778223
0.087667994 0.046165865 0.2183 6844014
0.088172667 0.046163525 0.2183 6646635
0.088799164 0.046224624 0.21859999 6778221
0.089386135 0.046264578 0.21879999 6778221
0.089891836 0.046262242 0.21879999 6646635
0.090397485 0.046259914 0.21879999 6646635
0.090903103 0.046257582 0.21879999 6580842
0.091492213 0.046297539 0.219 6515049
0.091998197 0.046295214 0.219 6580842
0.092504151 0.046292894 0.219 6646637
0.093094982 0.046332851 0.2192 6580844
0.093601316 0.046330541 0.2192 6515051
0.094107606 0.046328239 0.2192 6580844
0.094613835 0.046325933 0.2192 6580842
0.009371385 0.06033738 0.2807 5658968
0.010000507 0.060165267 0.27989998 5658968
0.010656334 0.060165092 0.27989998 5658968
0.011243447 0.059799466 0.2782 5658968
0.011835417 0.059498303 0.27680001 5658968
0.012402775 0.059111118 0.27500001 5658968
0.012985412 0.05883139 0.2737 5593175
0.013556967 0.058530133 0.2723 5593175
0.014127163 0.058250349 0.271 5593175
0.014691258 0.057970531 0.26969999 5593175
0.015266294 0.057755187 0.2687 5593175
0.015818881 0.057475321 0.2674 5658968
0.016445311 0.057474855 0.2674 5724761
0.017007886 0.057259418 0.26639998 5724761
0.017545903 0.056979489 0.2651 5658968
0.018105222 0.056785494 0.2642 5658968
0.018653218 0.056569982 0.26319999 5724761
0.019203832 0.056375947 0.26229998 5790554
0.01977288 0.05624637 0.2617 5790554
0.02030793 0.056030784 0.26069999 5724761
0.020894451 0.055965636 0.2604 5724761
0.021504313 0.055964928 0.2604 5724761
0.022088679 0.055899713 0.26010001 5528156
0.02269779 0.055898953 0.26010001 5462363
0.02330688 0.055898171 0.26010001 4213590
0.023943523 0.055961818 0.2604 2831937
0.024581546 0.056025445 0.26069999 2569797
0.025220953 0.056089051 0.26100001 2372418
0.025901319 0.05623858 0.2617 2241347
0.026574802 0.056366578 0.26229998 2307140
0.027251067 0.056494553 0.26289999 2306886
0.027961904 0.056686964 0.2638 2241093
0.028579423 0.056685943 0.2638 2175300
0.029274384 0.056835312 0.26449999 2241093
0.029961282 0.056963164 0.2651 2241093
0.030662492 0.057112467 0.2658 2241093
0.03131986 0.057175789 0.26609999 2241093
0.031978596 0.057239082 0.26639998 2241093
0.032638706 0.057302352 0.2667 2241093
0.033225339 0.057236675 0.26639998 2306886
0.033848651 0.057235435 0.26639998 2306886
0.034471922 0.057234164 0.26639998 2306886
0.032912925 0.050956003 0.23719999 2109761
0.033354815 0.050782897 0.23639999 2241347
0.033835959 0.050674226 0.2359 2241347
0.034343876 0.050608501 0.23559999 2175554
0.034746669 0.050392397 0.23459999 2175554
0.035295196 0.050391078 0.23459999 2175552
0.035690889 0.050174944 0.23359999 2043966
0.036128409 0.050023239 0.23289999 1780794
0.036515366 0.049807079 0.23189999 1583415
0.036865652 0.049547967 0.2307 1451568
0.037291352 0.049396221 0.22999999 1451568
0.03771374 0.049244471 0.22929999 1582382
0.03808276 0.049028281 0.22829999 1516589
0.038497809 0.048876505 0.22759999 1516589
0.03902958 0.048875041 0.22759999 1516589
0.039439633 0.048723239 0.2269 1845040
0.039881602 0.048614372 0.22639999 1845040
0.040285494 0.048462551 0.22569999 1845294
0.040740311 0.048375137 0.2253 1976880
0.041174892 0.048266236 0.22479999 2700088
0.041532896 0.04807144 0.22389999 3358018
0.041924212 0.047919575 0.22319999 3488319
0.042274185 0.047724769 0.22229999 4212042
0.042619903 0.047529958 0.22139999 4212042
0.043136723 0.047528341 0.22139999 3751491
0.043476038 0.047333509 0.22049999 3093561
0.043771204 0.047095746 0.21939999 2633525
0.04406118 0.046857979 0.2183 2172974
0.044366401 0.046641681 0.2173 1712941
0.044687543 0.046446837 0.2164 1449769
0.04502533 0.046273459 0.2156 1121317
0.045380447 0.046121538 0.2149 1121317
0.045753594 0.045991071 0.21429999 990247
0.046123896 0.0458606 0.2137 1056040
0.046622243 0.045858875 0.2137 1121833
0.047032341 0.045771305 0.21329999 1253419
0.047440533 0.045683727 0.2129 1121056
0.047891829 0.045639049 0.21269999 2318
0.048273895 0.045529991 0.2122 2053
0.048722528 0.045485303 0.212 265225
0.049216598 0.0454835 0.212 593930
0.049710624 0.045481689 0.212 857102
0.050204594 0.04547986 0.212 1054230
0.050698511 0.045478024 0.212 1646367
0.051144078 0.045433264 0.21179999 2172713
0.051637422 0.045431398 0.21179999 1712162
0.052130714 0.045429524 0.21179999 4343110
0.052574255 0.045384731 0.21159999 5724763
0.053016815 0.045339927 0.21139999 5724761
0.053407766 0.04525223 0.211 5856347
0.053745706 0.045121629 0.2104 5987416
0.05413235 0.045033921 0.20999999 5921623
0.054465059 0.044903323 0.2094 5987159
0.054952376 0.044901375 0.2094 6052952
0.055280793 0.044770766 0.20879999 6052952
0.055659771 0.044683039 0.2084 5987159
0.056036834 0.044595309 0.20799999 5987159
0.056411985 0.044507571 0.2076 5987159
0.056867432 0.04448415 0.2075 5987159
0.057294734 0.044439282 0.20729999 5855573
0.057721037 0.044394407 0.20709999 5789780
0.058202568 0.044392392 0.20709999 5723987
0.05868404 0.044390369 0.20709999 5789780
0.059165467 0.044388339 0.20709999 5723987
0.059589218 0.044343434 0.2069 5723987
0.06001199 0.044298526 0.2067 5723987
0.06037527 0.044210751 0.20629999 5658451
0.060854595 0.044208691 0.20629999 5658451
0.06133388 0.044206623 0.20629999 5724244
0.061813109 0.044204544 0.20629999 5724244
0.062231902 0.044159606 0.2061 5724244
0.062710553 0.044157516 0.2061 5658451
0.063189149 0.044155411 0.2061 5526865
0.063667692 0.044153303 0.2061 5658451
0.064146183 0.044151191 0.2061 5658451
0.064624622 0.044149071 0.2061 5855830
0.065102994 0.04414694 0.2061 5790037
0.065644957 0.044187643 0.20629999 5855830
0.066123702 0.044185501 0.20629999 5790037
0.066602372 0.044183347 0.20629999 5921623
0.067211069 0.044266853 0.2067 5921623
0.067756064 0.044307519 0.2069 5987416
0.068367891 0.044390999 0.20729999 5921623
0.06884867 0.044388816 0.20729999 5921623
0.069429733 0.044450864 0.2076 5855830
0.069978453 0.044491485 0.2078 5921370
0.070528045 0.044532098 0.20799999 5921370
0.071146794 0.044615526 0.2084 5855577
0.071767345 0.044698935 0.20879999 5855577
0.0723897 0.044782333 0.20919999 5724761
0.072944172 0.044822913 0.2094 5790554
0.073499538 0.044863481 0.2096 5790554
0.074126355 0.044946842 0.20999999 5790554
0.074612863 0.044944588 0.20999999 5856347
0.075313896 0.045070738 0.21059999 5856347
0.076161616 0.045282468 0.21159999 5856347
0.0769777 0.045472775 0.21249999 5790554
0.077907272 0.04572726 0.2137 5856347
0.078622207 0.045853332 0.21429999 5856347
0.079339877 0.045979392 0.2149 5790554
0.080171727 0.04616962 0.21579999 5987933
0.080895543 0.04629565 0.2164 6053726
0.081396408 0.046293311 0.2164 6185312
0.082237832 0.046483491 0.2173 6185314
0.082816824 0.046523917 0.2175 6316900
0.083473302 0.046607122 0.21789999 6580842
0.084054522 0.046647537 0.2181 6778221
0.084636599 0.046687946 0.2183 6844016
0.085258573 0.046749741 0.21859999 6844016
0.085842639 0.046790145 0.21879999 6844016
0.08634866 0.04678778 0.21879999 6778223
0.086934023 0.046828177 0.219 6778221
0.087440416 0.046825815 0.219 6646635
0.08794675 0.046823449 0.219 6844014
0.088453047 0.046821088 0.219 6778221
0.089040548 0.046861488 0.2192 6646635
0.089547209 0.046859127 0.2192 6646635
0.090135992 0.046899516 0.21939999 6580842
0.090643041 0.046897165 0.21939999 6646635
0.091150023 0.046894807 0.21939999 6646635
0.091656983 0.04689246 0.21939999 6580842
0.092163891 0.046890114 0.21939999 6515049
0.092670761 0.04688777 0.21939999 6515051
0.093304999 0.046949547 0.21969999 6580844
0.093812488 0.046947215 0.21969999 6580844
0.094319932 0.046944883 0.21969999 6515051
0.094827339 0.046942562 0.21969999 6515049
0.011243222 0.060449116 0.2782 5658968
0.011835161 0.060144674 0.27680001 5658968
0.01232582 0.05938391 0.27329999 5658968
0.012890211 0.059035953 0.27169999 5593175
0.013457053 0.058731437 0.2703 5593175
0.014038174 0.058513794 0.26929998 5527382
0.014598261 0.058230959 0.26800001 5593175
0.015169282 0.058013264 0.26699999 5593175
0.015741521 0.057817273 0.26609999 5658968
0.016364882 0.057816815 0.26609999 5724761
0.016924383 0.057599045 0.2651 5658968
0.017505655 0.057468154 0.26449999 5723991
0.018056689 0.05725034 0.26350001 5723991
0.018631369 0.057119396 0.26289999 5855577
0.019203216 0.056988429 0.26229998 5921370
0.019742014 0.056770544 0.2613 5790554
0.020307265 0.05663953 0.26069999 5724761
0.020893756 0.056573667 0.2604 5724761
0.02150359 0.056572948 0.2604 5658968
0.022087924 0.05650704 0.26010001 5593177
0.022697013 0.056506272 0.26010001 5658970
0.02330607 0.056505475 0.26010001 5331040
0.023942688 0.05656983 0.2604 4146766
0.024580687 0.056634147 0.26069999 2963269
0.025249049 0.056763608 0.2613 2765890
0.025930088 0.056914773 0.26199999 2372420
0.02657385 0.056978993 0.26229998 2372420
0.027281182 0.057173532 0.26319999 2306886
0.027960896 0.057302866 0.2638 2175300
0.028578386 0.057301842 0.2638 2306886
0.02930652 0.057518005 0.26479998 2504265
0.029960187 0.057582077 0.2651 2241093
0.030661365 0.057733007 0.2658 2241093
0.031354018 0.057862185 0.26639998 2241093
0.032013431 0.057926178 0.2667 2241093
0.032637492 0.057924975 0.2667 2241093
0.033261519 0.057923742 0.2667 2306886
0.033885509 0.05792249 0.2667 2307140
0.034509454 0.057921201 0.2667 2438726
0.032870065 0.051444534 0.23689999 2307140
0.033353556 0.051334705 0.23639999 2307140
0.033834677 0.051224861 0.2359 2307140
0.034313418 0.051114999 0.23539999 2241347
0.034789782 0.051005118 0.2349 2175554
0.035338987 0.051003784 0.2349 2241345
0.035735369 0.050785311 0.2339 2241345
0.036158059 0.050610237 0.2331 2109759
0.036513984 0.050348315 0.23189999 1715001
0.03689621 0.050129808 0.23089999 1582900
0.037322361 0.049976423 0.23019999 1451314
0.037712302 0.049779605 0.22929999 1582384
0.038114671 0.049604487 0.22849999 1516591
0.038496342 0.04940765 0.22759999 1582384
0.039028101 0.049406171 0.22759999 1582384
0.0394729 0.049296144 0.2271 1713968
0.039880082 0.049142677 0.22639999 1779761
0.040337507 0.049054328 0.226 1976880
0.040738761 0.048900854 0.2253 2305845
0.041173331 0.048790772 0.22479999 2831674
0.041568425 0.048637267 0.22409999 3358018
0.041960191 0.048483759 0.2234 3751491
0.042367663 0.048351943 0.2228 3751491
0.04271454 0.048155021 0.2219 4475214
0.043232508 0.048153393 0.2219 4080456
0.043572977 0.047956441 0.221 3619905
0.043869298 0.047716092 0.2199 2830391
0.0442008 0.04751914 0.219 2567219
0.04448723 0.047278795 0.21789999 2107183
0.044768468 0.047038436 0.21679999 1712425
0.045107171 0.04686318 0.21599999 1252903
0.045442093 0.046687912 0.21519999 1187110
0.045751881 0.046490945 0.21429999 990245
0.046165336 0.046402451 0.2139 990245
0.046664141 0.046400707 0.2139 1056040
0.047030594 0.04626881 0.21329999 1121833
0.047438771 0.046180282 0.2129 1647915
0.047845025 0.046091743 0.21249999 266262
0.04822661 0.045981511 0.212 67848
0.048720729 0.045979716 0.212 67848
0.049168363 0.045934532 0.21179999 593677
0.049661897 0.045932699 0.21179999 922642
0.05010803 0.045887493 0.21159999 1185048
0.050600998 0.045885641 0.21159999 1579806
0.051093917 0.045883778 0.21159999 1777955
0.051586784 0.045881901 0.21159999 1843748
0.052030366 0.045836639 0.21139999 4408903
0.052472968 0.045791376 0.2112 5527384
0.05291459 0.045746099 0.211 5658968
0.053304587 0.045657452 0.21059999 5724761
0.053692684 0.045568805 0.2102 5987159
0.0540273 0.045436796 0.2096 5987159
0.054411095 0.045348134 0.20919999 5987159
0.05489793 0.045346171 0.20919999 6052952
0.055278827 0.045257501 0.20879999 5987159
0.05560438 0.045125484 0.20819999 5921366
0.056034852 0.045080148 0.20799999 5987159
0.056409996 0.044991467 0.2076 5855573
0.056865443 0.044967797 0.2075 5921366
0.057292718 0.044922445 0.20729999 5789780
0.057719018 0.044877086 0.20709999 5592401
0.058200546 0.044875063 0.20709999 5592401
0.058625337 0.044829693 0.2069 5723987
0.059106287 0.044827648 0.2069 5592401
0.059529565 0.044782259 0.2067 5461072
0.059951879 0.044736873 0.20649999 5526865
0.060373202 0.044691477 0.20629999 5526865
0.060852524 0.044689398 0.20629999 5526865
0.061331797 0.044687316 0.20629999 5658451
0.061751101 0.044641901 0.2061 5658451
0.062229801 0.044639803 0.2061 5658451
0.062708437 0.044637695 0.2061 5658451
0.06318704 0.044635583 0.2061 5658451
0.063665569 0.044633456 0.2061 5658451
0.06414406 0.044631328 0.2061 5724244
0.064622484 0.04462919 0.2061 5855830
0.065100864 0.044627044 0.2061 5855830
0.065642804 0.044668194 0.20629999 5855830
0.066121541 0.04466603 0.20629999 5855830
0.066600204 0.044663865 0.20629999 5855830
0.067208886 0.044748291 0.2067 5855830
0.067753889 0.044789404 0.2069 5855830
0.068365693 0.044873796 0.20729999 5921623
0.068846479 0.044871598 0.20729999 5921623
0.069427535 0.044934329 0.2076 5921623
0.069976248 0.0449754 0.2078 5921370
0.070525832 0.045016468 0.20799999 5921370
0.071144573 0.045100801 0.2084 5921370
0.07176511 0.045185126 0.20879999 5921370
0.072387457 0.045269441 0.20919999 5724761
0.072941929 0.045310464 0.2094 5856347
0.073427148 0.04530821 0.2094 5790554
0.074053504 0.045392487 0.20979999 5790554
0.074539535 0.045390218 0.20979999 5856347
0.075240098 0.045517754 0.2104 5987933
0.076087341 0.045731794 0.21139999 5856347
0.07697539 0.045967452 0.21249999 5856347
0.077977858 0.046267971 0.2139 5987933
0.078473136 0.046265647 0.2139 5856347
0.079189874 0.046393089 0.2145 5987933
0.080020793 0.046585403 0.2154 6053726
0.080818437 0.046756063 0.21619999 5987933
0.081318833 0.046753708 0.21619999 6119519
0.082046248 0.046881091 0.21679999 6185314
0.08273831 0.046986848 0.2173 6448486
0.083394319 0.047070961 0.21769999 6646635
0.083975069 0.047111832 0.21789999 6844014
0.084634237 0.04719593 0.2183 6844016
0.085256204 0.047258411 0.21859999 6844016
0.085918732 0.047342498 0.219 6909809
0.086504139 0.047383342 0.2192 6844016
0.087011047 0.047380958 0.2192 6844014
0.087517895 0.047378574 0.2192 6646635
0.088024691 0.047376189 0.2192 6646635
0.088612221 0.047417026 0.21939999 6580842
0.089119397 0.047414646 0.21939999 6580842
0.089749083 0.0474771 0.21969999 6580842
0.090339027 0.047517944 0.2199 6580842
0.090847239 0.047515564 0.2199 6646635
0.091355383 0.047513187 0.2199 6646635
0.091947056 0.047554031 0.2201 6580842
0.092455588 0.047551662 0.2201 6580842
0.092964083 0.047549304 0.2201 6580844
0.09347254 0.047546942 0.2201 6646637
0.093980953 0.047544584 0.2201 6580844
0.094489321 0.047542229 0.2201 6515051
0.094997659 0.047539894 0.2201 6515049
0.012325536 0.06002203 0.27329999 5593175
0.012889899 0.059670337 0.27169999 5658968
0.013377058 0.059011165 0.2687 5593175
0.013938763 0.058725301 0.2674 5593175
0.01451071 0.058505304 0.26639998 5593175
0.015077957 0.058285281 0.26539999 5593175
0.01564642 0.058087192 0.26449999 5658968
0.016266001 0.058086727 0.26449999 5789784
0.016840881 0.057932504 0.2638 5789784
0.017419079 0.057800211 0.26319999 5789784
0.018015007 0.057733785 0.26289999 5789784
0.018588256 0.057601433 0.26229998 5789784
0.019158671 0.057469077 0.2617 5789784
0.019741369 0.057380605 0.2613 5724761
0.020306589 0.057248175 0.26069999 5658968
0.020893054 0.057181619 0.2604 5658968
0.02150286 0.0571809 0.2604 5790554
0.022087168 0.057114281 0.26010001 5724763
0.022696231 0.05711351 0.26010001 5658970
0.02330526 0.057112709 0.26010001 5593697
0.023941848 0.057177752 0.2604 5264732
0.024579817 0.057242762 0.26069999 3949905
0.025248151 0.057373628 0.2613 3160389
0.02592916 0.057526402 0.26199999 2700613
0.026603289 0.057657208 0.2626 2700613
0.027280195 0.057787955 0.26319999 2438726
0.027959876 0.057918686 0.2638 2307140
0.028577341 0.057917658 0.2638 2306886
0.029305441 0.058136139 0.26479998 2504265
0.029959081 0.058200911 0.2651 2241093
0.030660231 0.058353461 0.2658 2241093
0.031352852 0.058484029 0.26639998 2306886
0.032012235 0.058548715 0.2667 2241093
0.032672983 0.058613349 0.26699999 2241347
0.03309815 0.058260884 0.26539999 2307140
0.033719067 0.058259621 0.26539999 2307140
0.034339946 0.05825834 0.26539999 2307140
0.03286881 0.051997442 0.23689999 2438726
0.033352293 0.051886443 0.23639999 2438726
0.033833388 0.051775418 0.2359 2307140
0.034312114 0.051664375 0.23539999 2241347
0.034818076 0.051597219 0.2351 2438726
0.035367727 0.05159587 0.2351 2438724
0.035764556 0.05137505 0.2341 2307138
0.036203206 0.051220048 0.23339999 2307138
0.03659131 0.050999202 0.2324 2241345
0.036974691 0.050778348 0.2314 1648693
0.037369568 0.050579425 0.2305 1451314
0.037743747 0.050358556 0.2295 1713970
0.038163248 0.050203498 0.2288 1713970
0.038528703 0.049982607 0.2278 1582384
0.039060898 0.049981117 0.2278 1582384
0.039471388 0.049826026 0.2271 1779761
0.039878558 0.04967092 0.22639999 1779761
0.040335961 0.049581621 0.226 1845554
0.040737201 0.049426503 0.2253 1977140
0.041171756 0.04931524 0.22479999 2436916
0.041622482 0.049225908 0.2244 2634295
0.04201493 0.049070749 0.22369999 3949383
0.042404078 0.048915584 0.22299999 3949383
0.042789906 0.04876041 0.22229999 4344141
