# .PCD v0.7 - Point Cloud Data file format
VERSION 0.7
FIELDS x y z rgb
SIZE 4 4 4 4
TYPE F F F U
COUNT 1 1 1 1
WIDTH 1153
HEIGHT 1
VIEWPOINT 0 0 0 1 0 0 0
POINTS 1153
DATA ascii
0.0051107164 0.033329334 0.26449999 3028020
0.0057248999 0.033291541 0.2642 3093813
0.0063352734 0.03324113 0.2638 3093811
0.0069464045 0.033203296 0.26350001 2896432
0.0075561255 0.033165451 0.26319999 2896432
0.0081644356 0.033127584 0.26289999 2896432
0.0087713338 0.033089697 0.2626 2896434
0.0093875425 0.033089601 0.2626 2830641
0.0099923164 0.033051677 0.26229998 2633775
0.010583544 0.032975942 0.2617 2633775
0.011167668 0.032887582 0.26100001 2371375
0.011766551 0.032849606 0.26069999 2108203
0.01237826 0.032849412 0.26069999 2108203
0.012989959 0.032849204 0.26069999 1976617
0.013601645 0.032848977 0.26069999 1581605
0.014213318 0.032848731 0.26069999 1450019
0.014824977 0.03284847 0.26069999 1383456
0.01543662 0.032848194 0.26069999 1317663
0.016048245 0.032847892 0.26069999 1055774
0.016659856 0.032847576 0.26069999 1055774
0.017271444 0.032847241 0.26069999 1055776
0.017903598 0.032884687 0.26100001 989983
0.018494572 0.032846522 0.26069999 924190
0.019106099 0.03284613 0.26069999 989983
0.01967223 0.032770138 0.26010001 989468
0.020282308 0.032769714 0.26010001 857882
0.020892363 0.032769278 0.26010001 989468
0.021502389 0.032768819 0.26010001 1055261
0.022112392 0.032768343 0.26010001 989468
0.022722369 0.032767851 0.26010001 989468
0.023359226 0.032805134 0.2604 989470
0.023997463 0.032842398 0.26069999 989470
0.024703158 0.032967836 0.2617 792604
0.025345786 0.033005066 0.26199999 792604
0.026049245 0.033117857 0.26289999 661532
0.02672646 0.033192839 0.26350001 661532
0.027447965 0.033318184 0.26449999 792866
0.028068004 0.03331754 0.26449999 661280
0.028753089 0.033392463 0.2651 792868
0.029452028 0.033479962 0.2658 792868
0.030176837 0.033592626 0.2667 858407
0.030882733 0.033680089 0.2674 989993
0.03154473 0.033717133 0.26769999 1846589
0.032244146 0.033791959 0.2683 1583417
0.032958586 0.033879343 0.26899999 1321276
0.033626322 0.033916347 0.26929998 1387069
0.034257252 0.033915542 0.26929998 1387069
0.04066857 0.035659686 0.2832 2044997
0.041331675 0.035658699 0.2832 2044997
0.042261627 0.035884339 0.285 2110790
0.04292883 0.035883311 0.285 1913925
0.043764241 0.036020767 0.2861 2111304
0.044558153 0.036120422 0.28689998 2177097
0.045339987 0.036207464 0.28759998 2242890
0.046141036 0.036307074 0.28839999 2636875
0.046929542 0.036394075 0.28909999 2768461
-0.016973402 0.037492935 0.2922 2633527
-0.016288389 0.037493631 0.2922 2044738
-0.015603334 0.037494313 0.2922 1978945
-0.014877398 0.037392318 0.29139999 1782339
-0.014160049 0.037303127 0.29069999 1650753
-0.013441313 0.03720108 0.2899 1651525
-0.012743903 0.037150342 0.2895 1585732
-0.012031667 0.03704825 0.28869998 1782339
-0.011311353 0.036907636 0.28759998 1848132
-0.01059617 0.036767002 0.28650001 1649726
-0.0098722614 0.036575004 0.285 1189175
-0.0091456734 0.036344476 0.2832 1188659
-0.0084814131 0.036344938 0.2832 1057073
-0.0077481181 0.036024529 0.2807 925485
-0.0070088496 0.035614256 0.2775 925485
-0.0062937359 0.035255287 0.27469999 925485
-0.0056081917 0.034998968 0.27269998 1057071
-0.0049374769 0.034781132 0.271 1057069
-0.0043017059 0.034781449 0.271 1122862
-0.0036348039 0.034486558 0.2687 1188396
-0.0029932135 0.034358494 0.26769999 925224
-0.0023651358 0.034358751 0.26769999 1188394
-0.0017305559 0.034230649 0.2667 1583152
-0.001103555 0.034192361 0.26639998 2831674
-0.00047669341 0.034064207 0.26539999 3292225
0.00014603643 0.034064393 0.26539999 3160637
0.00076703756 0.033987544 0.26479998 2963258
0.0013852316 0.033910684 0.2642 3094328
0.0019998578 0.033820957 0.26350001 3094328
0.0026151801 0.033782553 0.26319999 3094328
0.0032327836 0.033782642 0.26319999 3028535
0.0038503923 0.033782702 0.26319999 3094326
0.0044680033 0.033782754 0.26319999 3028533
0.0050798203 0.033744279 0.26289999 2896434
0.0056902301 0.033705782 0.2626 2830641
0.0062992321 0.033667266 0.26229998 2830641
0.0069147334 0.033667244 0.26229998 2764848
0.00752162 0.033628687 0.26199999 2764848
0.0081270961 0.033590119 0.2617 2830641
0.0087411813 0.033590037 0.2617 2830641
0.0093552591 0.033589941 0.2617 2764848
0.0099426666 0.033499967 0.26100001 2502189
0.010542954 0.033461321 0.26069999 2633775
0.011128996 0.033384163 0.26010001 2567982
0.011725749 0.033345476 0.25979999 2370603
0.012321085 0.033306785 0.2595 2370605
0.012929949 0.033306569 0.2595 2304812
0.013538799 0.033306338 0.2595 2173226
0.014131285 0.033267591 0.25920001 1844261
0.014739405 0.033267327 0.25920001 1844261
0.015365274 0.033305541 0.2595 1712675
0.015974069 0.033305243 0.2595 1318433
0.016582847 0.033304922 0.2595 1252640
0.017191604 0.033304587 0.2595 1186849
0.01780034 0.033304226 0.2595 1186849
0.01840906 0.033303857 0.2595 1055774
0.01901776 0.033303466 0.2595 989981
0.019581052 0.03322605 0.25889999 1055261
0.020188296 0.033225626 0.25889999 1055261
0.020819619 0.03326368 0.25920001 1055261
0.021402718 0.033224713 0.25889999 1121054
0.022009891 0.033224236 0.25889999 989470
0.022643242 0.033262242 0.25920001 1055263
0.023277972 0.033300217 0.2595 1055263
0.023914078 0.033338178 0.25979999 1121056
0.02455157 0.033376131 0.26010001 924190
0.025248472 0.033491045 0.26100001 989983
0.025890114 0.03352895 0.2613 858913
0.026604129 0.033656657 0.26229998 793120
0.027312424 0.033771507 0.26319999 793120
0.027929401 0.033770856 0.26319999 793120
0.028654803 0.033898506 0.2642 792866
0.029373772 0.034013294 0.2651 661280
0.030074295 0.034102395 0.2658 792614
0.030766508 0.034178652 0.26639998 661028
0.0314615 0.034254894 0.26699999 1057073
0.032171272 0.034343936 0.26769999 1780796
0.032835286 0.034381643 0.26800001 1452860
0.033500653 0.034419332 0.2683 1452860
0.034129225 0.03441852 0.2683 1387069
0.03484844 0.03450748 0.26899999 1452862
0.040667586 0.036323421 0.2832 1979204
0.041330669 0.036322419 0.2832 2110790
0.042260602 0.036552254 0.285 2242376
0.04292779 0.036551211 0.285 2308169
0.043763179 0.036691226 0.2861 2308169
0.044665784 0.036882505 0.28759998 2177097
0.045512296 0.037022464 0.28869998 2308683
0.046379887 0.03717522 0.2899 2703181
-0.016949452 0.038125668 0.29179999 2567734
-0.016243096 0.038074113 0.29139999 1978945
-0.015559937 0.038074803 0.29139999 2044738
-0.014856324 0.038023207 0.29099998 1782339
-0.01415942 0.037984658 0.29069999 1716546
-0.013440704 0.037880745 0.2899 1716548
-0.012743316 0.037829075 0.2895 1650755
-0.012001929 0.03763365 0.28799999 1518907
-0.011251821 0.037385929 0.2861 1124149
-0.010514287 0.037151244 0.2843 728878
-0.0097851716 0.036916532 0.2825 728878
-0.009051553 0.036629517 0.28029999 728878
-0.0083941147 0.036629979 0.28029999 794671
-0.007648326 0.036212236 0.2771 859692
-0.0069301543 0.035859805 0.2744 859692
-0.0062315008 0.035546545 0.27199998 925485
-0.0055461437 0.035246335 0.26969999 1057071
-0.0049134586 0.035246681 0.26969999 1057069
-0.0043013906 0.035416905 0.271 1057069
-0.0036074582 0.034855239 0.2667 1057323
-0.0029672261 0.034685627 0.26539999 859944
-0.0023445643 0.034685887 0.26539999 794151
-0.0017141029 0.034529302 0.2642 794151
-0.0010925732 0.034477241 0.2638 924452
-0.00047255002 0.034399029 0.26319999 1056038
0.00014483332 0.034360003 0.26289999 1845808
0.00076081837 0.034320962 0.2626 2174773
0.0013738307 0.034242682 0.26199999 2634293
0.0019863115 0.034203604 0.2617 2634293
0.0025963972 0.034151427 0.2613 2568754
0.0032095239 0.034151517 0.2613 2502961
0.0038226552 0.034151584 0.2613 2568754
0.0044306964 0.034112431 0.26100001 2634547
0.005043129 0.034112453 0.26100001 2633777
0.0056555611 0.034112465 0.26100001 2370605
0.0062679956 0.034112457 0.26100001 2567984
0.006872518 0.034073219 0.26069999 2567984
0.0074842442 0.03407317 0.26069999 2502191
0.0080866506 0.034033902 0.2604 2502191
0.0086976662 0.03403382 0.2604 2699570
0.0093086753 0.034033716 0.2604 2633777
0.0098968232 0.033955175 0.25979999 2502189
0.010482148 0.03387662 0.25920001 2699568
0.011077484 0.033837251 0.25889999 2699568
0.011671403 0.033797864 0.2586 2633775
0.012263906 0.033758465 0.25830001 2765361
0.012869937 0.033758253 0.25830001 2699568
0.013475955 0.033758018 0.25830001 2633775
0.014081961 0.033757765 0.25830001 2502189
0.014687953 0.033757504 0.25830001 2370605
0.015293927 0.03375721 0.25830001 2107433
0.015899889 0.033756912 0.25830001 2173226
0.01648666 0.033717375 0.25799999 1844261
0.01709188 0.033717033 0.25799999 1581605
0.017717661 0.033755884 0.25830001 1515812
0.01832355 0.033755504 0.25830001 1450019
0.018929413 0.033755105 0.25830001 1252640
0.019512564 0.033715487 0.25799999 1186847
0.020094289 0.033675846 0.2577 1121054
0.020698681 0.033675402 0.2577 1121054
0.021303045 0.033674933 0.2577 1186847
0.021932883 0.03371365 0.25799999 1055263
0.022564108 0.033752345 0.25830001 1055263
0.02319671 0.033791024 0.2586 989983
0.023830688 0.033829682 0.25889999 1055776
0.024494367 0.033907525 0.2595 858913
0.025160823 0.033985343 0.26010001 858913
0.02580034 0.034023944 0.2604 924706
0.026502082 0.034140922 0.2613 858913
0.027249524 0.034310143 0.2626 858913
0.027865071 0.03430948 0.2626 661534
0.028545661 0.034387201 0.26319999 661534
0.029273352 0.034517154 0.2642 661534
0.029960429 0.03459483 0.26479998 792614
0.030650282 0.03467248 0.26539999 858407
0.031354692 0.03476318 0.26609999 662315
0.032086372 0.034879979 0.26699999 1386038
0.032760978 0.034931447 0.2674 1979204
0.033462383 0.035009012 0.26800001 1518653
0.034090232 0.035008185 0.26800001 1387067
0.034718044 0.035007339 0.26800001 1518653
0.035438128 0.035097912 0.2687 1650241
0.036148023 0.035175398 0.26929998 1781827
0.039198309 0.036243629 0.2775 1979204
0.039848082 0.036242653 0.2775 2044997
0.040906426 0.036607336 0.28029999 2242376
0.042096443 0.037076455 0.28389999 2308169
0.042761043 0.037075393 0.28389999 2308169
0.043762095 0.037361626 0.2861 2308169
0.044835504 0.037700042 0.28869998 2440009
0.045763396 0.03790785 0.29029998 2440009
0.046506729 0.037958927 0.29069999 2636873
-0.016902257 0.038703263 0.29099998 2501941
-0.016203374 0.038664088 0.29069999 1978945
-0.015521877 0.038664784 0.29069999 2044738
-0.014819925 0.038612254 0.29029998 1913411
-0.014139294 0.038612913 0.29029998 1913411
-0.013384451 0.038400725 0.28869998 1650239
-0.012659088 0.038255021 0.28759998 1321274
-0.01190968 0.038016181 0.28579998 794671
-0.011137226 0.037670895 0.2832 794671
-0.010391725 0.037378784 0.28099999 794671
-0.009646127 0.037046745 0.27849999 794671
-0.0089251446 0.036767878 0.2764 926257
-0.0082768733 0.03676834 0.2764 992050
-0.0075430172 0.036356397 0.27329999 1188657
-0.0068363086 0.03601094 0.27070001 1122864
-0.0061463574 0.035692055 0.2683 1254448
-0.0055169961 0.035692427 0.2683 1254448
-0.0048420741 0.035360198 0.2658 1320241
-0.004202669 0.035227485 0.26479998 1320241
-0.0035774065 0.035187881 0.26449999 1123116
-0.0029457109 0.035055134 0.26350001 1123116
-0.0023275258 0.035055391 0.26350001 1123116
-0.0016995966 0.034856085 0.26199999 1057323
-0.0010836624 0.034816399 0.2617 859431
-0.00046840654 0.034723476 0.26100001 662052
0.00014379557 0.034683745 0.26069999 661282
0.00075459917 0.034644 0.2604 792868
0.0013640034 0.034604236 0.26010001 1253157
0.001974284 0.034604359 0.26010001 1713708
0.0025815899 0.034564558 0.25979999 1976878
0.0031911777 0.034564644 0.25979999 2042671
0.00380077 0.034564711 0.25979999 2042669
0.0044103647 0.03456476 0.25979999 2174255
0.0050141653 0.03452488 0.2595 2107949
0.0056230598 0.034524892 0.2595 2107949
0.0062319548 0.034524884 0.2595 2239535
0.0068408479 0.034524858 0.2595 2239535
0.0074497391 0.03452481 0.2595 2239535
0.0080493111 0.034484837 0.25920001 2239535
0.0086474707 0.034444831 0.25889999 2567984
0.0092549426 0.034444727 0.25889999 2633777
0.0098509798 0.034404702 0.2586 2831156
0.010445602 0.034364644 0.25830001 3028535
0.011025973 0.034284659 0.2577 2962742
0.011617059 0.034244571 0.25740001 2831156
0.012206726 0.034204457 0.25709999 2896434
0.012809922 0.034204241 0.25709999 2896434
0.013413106 0.03420401 0.25709999 2896434
0.013999923 0.034163844 0.2568 2830641
0.014602376 0.034163572 0.2568 2765361
0.015204816 0.034163289 0.2568 2567982
0.015807237 0.034162976 0.2568 2370603
0.016409645 0.034162652 0.2568 2370603
0.01701203 0.034162302 0.2568 2239789
0.017634977 0.034201849 0.25709999 1910824
0.018259313 0.034241375 0.25740001 1713445
0.018863047 0.034240976 0.25740001 1516066
0.019444073 0.034200646 0.25709999 1450019
0.020023666 0.034160301 0.2568 1318433
0.020625928 0.034159847 0.2568 1186847
0.021228164 0.03415937 0.2568 1121054
0.021881379 0.034238692 0.25740001 989983
0.022484971 0.034238182 0.25740001 989983
0.023115443 0.034277555 0.2577 858913
0.023774909 0.034356814 0.25830001 924706
0.024408842 0.034396149 0.2586 990499
0.025073171 0.034475371 0.25920001 924706
0.025740279 0.034554567 0.25979999 924706
0.026440596 0.03467365 0.26069999 924706
0.027113974 0.034752801 0.2613 858913
0.02772646 0.034752138 0.2613 661534
0.0284799 0.034924354 0.2626 661534
0.029161843 0.035003442 0.26319999 661534
0.029891815 0.035135712 0.2642 792868
0.030580239 0.035214759 0.26479998 792868
0.031318575 0.035346985 0.2658 728106
0.03201348 0.03542598 0.26639998 662313
0.032760166 0.035558164 0.2674 1123895
0.033424094 0.035597235 0.26769999 1584446
0.034051225 0.035596393 0.26769999 1584446
0.034717184 0.035635427 0.26800001 1650239
0.035384491 0.035674438 0.2683 1781827
0.036147118 0.035806499 0.26929998 1781827
0.03899958 0.036707766 0.27609998 2110790
0.039646052 0.036706779 0.27609998 2242376
0.04064272 0.037024833 0.27849999 2308169
0.041887809 0.03755556 0.2825 2373962
0.042549111 0.037554495 0.2825 2439496
0.043715104 0.037992083 0.28579998 2505289
0.044834383 0.038376458 0.28869998 2571082
0.045762237 0.038587995 0.29029998 2571082
0.046617545 0.038733035 0.29139999 2767689
-0.016884096 0.039344724 0.29069999 2764600
-0.016202658 0.039345451 0.29069999 2109761
-0.015521184 0.039346166 0.29069999 2175554
-0.014798836 0.039238576 0.2899 1979458
-0.014060718 0.039076816 0.28869998 1847872
-0.013300379 0.038833816 0.28689998 992309
-0.012544049 0.038577247 0.285 860723
-0.011771594 0.038239442 0.2825 860977
-0.010995106 0.037847452 0.27959999 992563
-0.010235886 0.037468966 0.27680001 1057841
-0.0095036263 0.037144601 0.2744 1057841
-0.0087825963 0.036820199 0.27199998 926255
-0.0081446646 0.036820661 0.27199998 728876
-0.0074432325 0.036509756 0.26969999 662311
-0.0068106488 0.03651017 0.26969999 464932
-0.0060726725 0.035887849 0.2651 267807
-0.005424107 0.035712224 0.2638 136221
-0.0047889082 0.035590738 0.26289999 267294
-0.0041579143 0.035469223 0.26199999 530466
-0.0035392407 0.035428919 0.2617 991015
-0.0029141339 0.035293825 0.26069999 1122601
-0.0023025374 0.035294093 0.26069999 1123114
-0.0016831442 0.035131879 0.2595 1057321
-0.0010730951 0.035091493 0.25920001 1122601
-0.00046444222 0.035051085 0.25889999 859429
0.00014297885 0.035051268 0.25889999 793638
0.00074953964 0.035010826 0.2586 662052
0.0013562741 0.035010971 0.2586 661282
0.0019607388 0.034970485 0.25830001 463903
0.0025667825 0.034970596 0.25830001 1056292
0.0031728321 0.034970682 0.25830001 1319464
0.0037788854 0.034970753 0.25830001 1516841
0.0043798485 0.034930188 0.25799999 1714220
0.004985203 0.034930218 0.25799999 1911085
0.0055905585 0.034930229 0.25799999 1976878
0.0062031196 0.034970842 0.25830001 2108462
0.0068012686 0.034930196 0.25799999 2108462
0.0074066217 0.034930144 0.25799999 2174255
0.0080119707 0.034930084 0.25799999 2305841
0.0086072972 0.034889385 0.2577 2699570
0.0092119323 0.034889277 0.2577 2831156
0.0098051354 0.034848537 0.25740001 2962742
0.01038479 0.034767158 0.2568 3028535
0.010987295 0.034766998 0.2568 3028533
0.011562711 0.034685586 0.25619999 3094326
0.012163787 0.034685392 0.25619999 2962740
0.012749907 0.034644559 0.2559 2831154
0.013334606 0.034603707 0.25560001 3028020
0.013934241 0.034603454 0.25560001 3028020
0.014516802 0.034562565 0.25529999 2765361
0.015115702 0.034562267 0.25529999 2699568
0.015714586 0.034561958 0.25529999 2633775
0.016332626 0.034602243 0.25560001 2699568
0.01693218 0.034601893 0.25560001 2437166
0.017531713 0.034601528 0.25560001 2173994
0.018173793 0.034682356 0.25619999 2108203
0.018774696 0.034681953 0.25619999 2042410
0.019375576 0.034681529 0.25619999 1647652
0.020023217 0.034762308 0.2568 1647652
0.020625461 0.03476185 0.2568 1384739
0.021227676 0.034761366 0.2568 1121567
0.021855369 0.034801472 0.25709999 1055776
0.022484448 0.034841567 0.25740001 1055776
0.023114897 0.034881637 0.2577 924706
0.023746729 0.034921683 0.25799999 924706
0.024379946 0.034961719 0.25830001 924706
0.025043551 0.035042334 0.25889999 924706
0.025709938 0.035122927 0.2595 990499
0.026379107 0.035203505 0.26010001 858913
0.027082184 0.035324659 0.26100001 858913
0.027693948 0.035323985 0.26100001 793120
0.02841413 0.035458632 0.26199999 793120
0.029127885 0.035579722 0.26289999 661534
0.029845819 0.035700791 0.2638 661028
0.030544834 0.035794765 0.26449999 924200
0.031235319 0.035875194 0.2651 728104
0.031976633 0.036009721 0.26609999 728104
0.032710347 0.0361307 0.26699999 663085
0.033385802 0.036183991 0.2674 1649980
0.034012213 0.036183137 0.2674 1781825
0.034677442 0.036222864 0.26769999 1650239
0.035383601 0.036303155 0.2683 1847618
0.036065672 0.036356371 0.2687 1847618
0.036831506 0.036490742 0.26969999 1979206
0.037879799 0.036895681 0.27269998 2110792
0.038518339 0.036894705 0.27269998 2110792
0.039444018 0.03716429 0.27469999 2110792
0.040393606 0.037447382 0.27680001 2308169
0.041560542 0.037919819 0.28029999 2373962
0.04221667 0.037918739 0.28029999 2571082
0.043423381 0.03840464 0.28389999 2571082
0.044600297 0.038849909 0.2872 2768461
0.045634963 0.039159872 0.2895 2636875
0.046744328 0.039523896 0.2922 2899275
-0.016836884 0.039915875 0.2899 2698805
-0.016112756 0.039806459 0.28909999 2241345
-0.015435053 0.039807178 0.28909999 2109759
-0.014680746 0.039601333 0.28759998 1583933
-0.013918825 0.039354149 0.28579998 926003
-0.013142134 0.039038081 0.28349999 860723
-0.01235419 0.038653135 0.2807 860723
-0.011575178 0.038254377 0.27779999 992561
-0.010790074 0.037786741 0.2744 992561
-0.010031983 0.037360378 0.27129999 728876
-0.0093161073 0.037044153 0.26899999 334118
-0.0086852573 0.037044641 0.26899999 267040
-0.0081442073 0.037458245 0.27199998 3868
-0.0073075765 0.036467142 0.26479998 3608
-0.0066309548 0.036164586 0.2626 3351
-0.0059944079 0.036041033 0.2617 3093
-0.0053476724 0.035821054 0.26010001 3093
-0.0047321017 0.035780083 0.25979999 2576
-0.0041179219 0.035739101 0.2595 3090
-0.0035010763 0.035656776 0.25889999 2574
-0.0028870301 0.035574432 0.25830001 2574
-0.0022810833 0.035574701 0.25830001 332053
-0.0016731777 0.035533633 0.25799999 726811
-0.0010654256 0.035451222 0.25740001 1253419
-0.00046155366 0.035451435 0.25740001 1056040
0.00014216275 0.0354103 0.25709999 924452
0.00074535038 0.035410471 0.25709999 792866
0.0013469727 0.035369311 0.2568 858661
0.0019471943 0.035328116 0.25650001 792868
0.0025489954 0.035328224 0.25650001 792866
0.0031544869 0.035369635 0.2568 792866
0.0037570011 0.035369702 0.2568 990499
0.0043544262 0.03532844 0.25650001 1253671
0.0049562408 0.03532847 0.25650001 1319462
0.0055645579 0.035369802 0.2568 1516841
0.0061670793 0.035369795 0.2568 1976876
0.0067775059 0.035411082 0.25709999 2042669
0.0073721153 0.035369713 0.2568 2174509
0.0079746302 0.03536965 0.2568 2371888
0.0085771419 0.035369564 0.2568 2634547
0.0091796452 0.035369463 0.2568 2831926
0.0097592901 0.035286691 0.25619999 2962742
0.010348243 0.035245232 0.2559 2831156
0.010935781 0.035203755 0.25560001 2962740
0.011521902 0.035162248 0.25529999 3028533
0.012120847 0.035162047 0.25529999 2831154
0.012704838 0.035120513 0.255 2831154
0.013303056 0.035120271 0.255 2962740
0.013884909 0.035078693 0.25470001 2962740
0.014482399 0.035078421 0.25470001 2962740
0.015079873 0.035078119 0.25470001 2765361
0.015677333 0.03507781 0.25470001 2699568
0.016274774 0.035077475 0.25470001 2765361
0.016892072 0.035118435 0.255 2699568
0.017490182 0.035118066 0.255 2699568
0.018130833 0.035200305 0.25560001 2699568
0.018752292 0.035241205 0.2559 2502189
0.019375138 0.035282087 0.25619999 2107431
0.019975975 0.035281636 0.25619999 2107431
0.020624986 0.035363793 0.2568 1647398
0.021227185 0.035363309 0.2568 1581605
0.021829356 0.035362799 0.2568 1187362
0.02245771 0.035403587 0.25709999 1121569
0.023087442 0.035444353 0.25740001 1121569
0.023746163 0.035526402 0.25799999 1121569
0.024379356 0.035567131 0.25830001 1121571
0.025042938 0.035649139 0.25889999 1055778
0.025679586 0.035689831 0.25920001 924706
0.026348028 0.035771802 0.25979999 924706
0.027050383 0.035895053 0.26069999 924706
0.02766143 0.035894375 0.26069999 858913
0.028380886 0.036031354 0.2617 793120
0.02906068 0.036113236 0.26229998 858913
0.029777186 0.036236409 0.26319999 727845
0.030463234 0.036318254 0.2638 793638
0.031199176 0.036455132 0.26479998 662565
0.031891707 0.036536936 0.26539999 728358
0.032599252 0.036632475 0.26609999 597290
0.033335011 0.036755525 0.26699999 1057841
0.033960462 0.036754657 0.26699999 1978945
0.034637693 0.036808841 0.2674 1913152
0.035303563 0.036849234 0.26769999 2043968
0.036011055 0.0369309 0.2683 1846589
0.036775932 0.0370676 0.26929998 1847618
0.037545454 0.037204277 0.2703 1913411
0.038376097 0.037395984 0.27169999 2044999
0.039442994 0.037807882 0.27469999 2242378
0.040392555 0.038095865 0.27680001 2373964
0.041559462 0.038576495 0.28029999 2439757
0.042215578 0.038575403 0.28029999 2571082
0.043208122 0.038877051 0.2825 2571082
0.044381727 0.039330032 0.28579998 2768461
0.045633785 0.039838027 0.2895 2768461
0.046615139 0.040098276 0.29139999 2965068
-0.01667932 0.040217139 0.2872 2764598
-0.015944825 0.040063854 0.2861 2372418
-0.015274176 0.040064573 0.2861 1911867
-0.014491199 0.039757185 0.28389999 1255222
-0.013718496 0.039449763 0.28169999 992050
-0.012928269 0.03905829 0.2789 992563
-0.012133533 0.03861076 0.2757 926770
-0.01134544 0.03813519 0.2723 729389
-0.01070695 0.038135748 0.2723 532010
-0.010031456 0.037996236 0.27129999 201760
-0.009315609 0.037674628 0.26899999 4124
-0.0084781516 0.03677877 0.2626 4122
-0.0078623053 0.036779225 0.2626 3351
-0.0071940054 0.036513552 0.26069999 2322
-0.0065446976 0.036303878 0.25920001 2322
-0.0059161475 0.036178216 0.25830001 2318
-0.0052979672 0.036094554 0.2577 2318
-0.0046825828 0.036010861 0.25709999 2316
-0.0040699965 0.035927162 0.25650001 2316
-0.0034602087 0.035843428 0.2559 2316
-0.0028565731 0.035801701 0.25560001 68366
-0.0022569802 0.035801969 0.25560001 68366
-0.0016515381 0.035676159 0.25470001 2316
-0.0010540311 0.035676386 0.25470001 68883
-0.00045597542 0.035634574 0.25439999 463641
0.00014068281 0.035592746 0.25409999 924452
0.00073594251 0.035550896 0.2538 990245
0.0013313763 0.035551041 0.2538 924452
0.001926817 0.035551172 0.2538 858659
0.0025252455 0.035593305 0.25409999 661280
0.003125086 0.035635419 0.25439999 661280
0.0037263397 0.035677519 0.25470001 661280
0.00432391 0.035677571 0.25470001 792866
0.0049272785 0.035719622 0.255 990499
0.0055255559 0.035719633 0.255 1056292
0.0061310381 0.035761651 0.25529999 1647911
0.0067379284 0.03580365 0.25560001 2108462
0.0073376098 0.035803601 0.25560001 2305841
0.0079372898 0.03580353 0.25560001 2371634
0.0085369656 0.035803448 0.25560001 2437681
0.0091366349 0.03580334 0.25560001 2503474
0.0097248713 0.035761196 0.25529999 2568754
0.010311694 0.035719026 0.255 2502961
0.010897102 0.035676841 0.25470001 2765363
0.011481092 0.035634633 0.25439999 2765363
0.012077906 0.035634432 0.25439999 2831154
0.012659765 0.035592187 0.25409999 2765361
0.013255853 0.035591938 0.25409999 2765361
0.013835576 0.035549659 0.2538 2831154
0.014413877 0.035507355 0.25349998 2765361
0.015008518 0.035507061 0.25349998 2765361
0.015603143 0.03550674 0.25349998 2699568
0.016274432 0.035674483 0.25470001 2699568
0.016891705 0.035716143 0.255 2765361
0.017489795 0.035715763 0.255 2765361
0.018130427 0.035799403 0.25560001 2699568
0.018751869 0.035841003 0.2559 2567982
0.019374695 0.035882581 0.25619999 2304810
0.019975513 0.035882123 0.25619999 2239017
0.020624502 0.035965689 0.2568 1976617
0.02122668 0.035965189 0.2568 1647652
0.021828838 0.035964679 0.2568 1253153
0.022457168 0.036006149 0.25709999 1253153
0.023086881 0.036047615 0.25740001 1253155
0.023745582 0.036131069 0.25799999 1187362
0.024378756 0.036172491 0.25830001 924452
0.02504232 0.036255896 0.25889999 924452
0.025678949 0.03629728 0.25920001 924452
0.026347373 0.036380641 0.25979999 990245
0.027049705 0.036506005 0.26069999 924452
0.027660731 0.036505304 0.26069999 990245
0.028380169 0.036644619 0.2617 727843
0.029059941 0.036727902 0.26229998 727843
0.02977643 0.036853164 0.26319999 793636
0.030462453 0.036936399 0.2638 859429
0.031198373 0.037075616 0.26479998 662565
0.031890884 0.037158806 0.26539999 662565
0.03259841 0.037255976 0.26609999 793897
0.033334143 0.037381127 0.26699999 793897
0.033959579 0.037380245 0.26699999 1780794
0.034636792 0.037435349 0.2674 2043966
0.035302643 0.037476428 0.26769999 2043968
0.036010113 0.037559491 0.2683 1846589
0.036774974 0.037698518 0.26929998 1978691
0.03754447 0.037837528 0.2703 2044484
0.038375095 0.038032502 0.27169999 2176070
0.042545799 0.039539918 0.2825 2505548
0.043206982 0.039538778 0.2825 2571341
0.044380561 0.039999481 0.28579998 2768461
0.045932058 0.040782019 0.29139999 2768461
0.046613902 0.04078079 0.29139999 2834254
-0.016463686 0.040363315 0.28349999 2830389
-0.015698876 0.040107783 0.28169999 2043453
-0.014905101 0.039752558 0.27919999 1122351
-0.014250617 0.039753251 0.27919999 1188659
-0.013459742 0.039355248 0.2764 1254452
-0.01266806 0.03891449 0.27329999 1123636
-0.012027307 0.038915109 0.27329999 794671
-0.01134486 0.038773309 0.2723 334118
-0.010706392 0.038773879 0.2723 5153
-0.0084776757 0.037394188 0.2626 3604
-0.0078618508 0.037394658 0.2626 3090
-0.0071935738 0.037124537 0.26069999 2574
-0.0065442887 0.036911353 0.25920001 2574
-0.0059157601 0.036783591 0.25830001 2316
-0.0052976008 0.036698524 0.2577 2316
-0.0046822377 0.036613435 0.25709999 2570
-0.004069672 0.036528334 0.25650001 2570
-0.003459905 0.0364432 0.2559 68366
-0.00285629 0.036400773 0.25560001 2316
-0.0022567171 0.036401052 0.25560001 2570
-0.0016512958 0.036273129 0.25470001 68620
-0.0010538088 0.03627336 0.25470001 2316
-0.00045577332 0.036230847 0.25439999 134159
0.00014086477 0.036188319 0.25409999 134674
0.00073610432 0.036145769 0.2538 463639
0.0013315183 0.036145918 0.2538 924190
0.0019269391 0.036146056 0.2538 924190
0.0025253478 0.036188893 0.25409999 924706
0.0031251686 0.036231708 0.25439999 793120
0.0037264023 0.036274511 0.25470001 661282
0.0043239524 0.036274564 0.25470001 595489
0.0049273013 0.036317319 0.255 661280
0.0055255587 0.036317337 0.255 792866
0.0061310213 0.036360051 0.25529999 1384741
0.0067378911 0.036402758 0.25560001 1516327
0.0073375525 0.036402702 0.25560001 1713706
0.0079372125 0.036402639 0.25560001 1713706
0.0085368697 0.036402553 0.25560001 1911083
0.0091365194 0.036402445 0.25560001 1976876
0.0097247344 0.036359586 0.25529999 2107949
0.010311536 0.036316711 0.255 2173742
0.010896925 0.036273822 0.25470001 2371121
0.011480896 0.036230911 0.25439999 2436914
0.012077692 0.036230706 0.25439999 2633775
0.012659531 0.036187753 0.25409999 2633775
0.013255599 0.036187507 0.25409999 2502959
0.013835304 0.036144525 0.2538 2568752
0.014413585 0.036101513 0.25349998 2502959
0.015008206 0.036101207 0.25349998 2502959
0.015602811 0.036100887 0.25349998 2568752
0.0161974 0.03610054 0.25349998 2502959
0.016791971 0.036100175 0.25349998 2502959
0.017407103 0.036142524 0.2538 2502959
0.018002342 0.036142122 0.2538 2567982
0.018619541 0.036184423 0.25409999 2502189
0.019238124 0.036226697 0.25439999 2239017
0.019858094 0.036268964 0.25470001 2304810
0.020503545 0.03635392 0.25529999 1910824
0.021102186 0.036353417 0.25529999 1647652
0.021726305 0.036395621 0.25560001 1384741
0.022351805 0.036437798 0.2559 2371636
0.022978682 0.036479954 0.25619999 1647402
0.023662161 0.036607523 0.25709999 1186851
0.024293207 0.036649641 0.25740001 1121317
0.024954639 0.036734447 0.25799999 1121317
0.025618859 0.036819242 0.2586 990245
0.026285857 0.036904003 0.25920001 990245
0.026986765 0.037031461 0.26010001 924454
0.027596366 0.037030756 0.26010001 990247
0.028336059 0.037200879 0.2613 859431
0.029025955 0.037299797 0.26199999 727845
0.02970778 0.03738445 0.2626 793638
0.030427018 0.037511788 0.26350001 925224
0.031162221 0.037653338 0.26449999 793638
0.03189005 0.037780628 0.26539999 859431
0.032597553 0.037879426 0.26609999 925224
0.033258364 0.037921257 0.26639998 859431
0.033958685 0.038005773 0.26699999 1057071
0.034584064 0.038004864 0.26699999 2504517
0.035262145 0.038060874 0.2674 2043966
0.036009155 0.038188025 0.2683 2109759
0.036733031 0.038286678 0.26899999 2175554
0.037460133 0.03838532 0.26969999 2241347
0.038275208 0.038569324 0.271 2307656
0.039096326 0.038753308 0.2723 2307656
0.039981838 0.038994186 0.27399999 2373962
0.041082829 0.039434265 0.2771 2439755
0.041731417 0.039433148 0.2771 2505548
0.042869352 0.03988738 0.28029999 2571341
0.044146452 0.040455412 0.2843 2768720
0.045268826 0.04086687 0.2872 2768720
0.046500687 0.041363649 0.29069999 2834000
-0.016462918 0.041027546 0.28349999 2698803
-0.015698137 0.040767804 0.28169999 1253937
-0.01490439 0.040406734 0.27919999 1122351
-0.014249926 0.040407442 0.27919999 1188657
-0.013459081 0.040002886 0.2764 1320243
-0.012667428 0.039554868 0.27329999 728876
-0.012026697 0.039555494 0.27329999 268325
-0.011344274 0.039411362 0.2723 201760
-0.010705827 0.039411947 0.2723 4124
-0.0097087296 0.038008537 0.2626 4117
-0.0090271812 0.037734043 0.26069999 4117
-0.0083577484 0.037473999 0.25889999 3088
-0.007750622 0.037474468 0.25889999 2574
-0.0071020834 0.037257798 0.25740001 2315
-0.006483282 0.037171375 0.2568 2572
-0.0058535328 0.036998078 0.25560001 2572
-0.0052417279 0.036911611 0.255 2315
-0.0046272557 0.036781695 0.25409999 67850
-0.0040169884 0.036651749 0.25319999 67850
-0.0034230943 0.036652073 0.25319999 68366
-0.0028235982 0.036579989 0.2527 2316
-0.0022308482 0.036580265 0.2527 2570
-0.0016341954 0.036493663 0.25209999 2570
-0.0010415869 0.036450475 0.2518 2570
-0.00045037465 0.036407258 0.25149998 68620
0.00013927344 0.036320597 0.2509 2316
0.00072785601 0.036320768 0.2509 68366
0.0013164466 0.036320921 0.2509 265745
0.0019050441 0.036321063 0.2509 528917
0.0024996107 0.036408029 0.25149998 989981
0.003093312 0.036451556 0.2518 989981
0.0036884255 0.036495056 0.25209999 989731
0.0042798561 0.036495104 0.25209999 792352
0.0048828828 0.036582004 0.2527 792354
0.0054800576 0.036610968 0.2529 792354
0.0060949824 0.036741253 0.2538 989731
0.0066983113 0.036784649 0.25409999 1055524
0.0073030465 0.03682803 0.25439999 1187364
0.0079091871 0.036871396 0.25470001 1187364
0.0085067116 0.036871307 0.25470001 1384743
0.0091042295 0.036871199 0.25470001 1582122
0.0096903136 0.036827635 0.25439999 1713193
0.010274985 0.036784064 0.25409999 1713193
0.010858243 0.036740471 0.2538 1910570
0.011453623 0.036740277 0.2538 1976363
0.012020504 0.036653217 0.25319999 2108203
0.012614455 0.036652986 0.25319999 2173996
0.013192745 0.036609311 0.2529 2239789
0.013775064 0.036580086 0.2527 2108203
0.014350746 0.036536373 0.25239998 2108203
0.014942766 0.036536071 0.25239998 2173996
0.015534773 0.03653574 0.25239998 2108203
0.016126765 0.036535401 0.25239998 2173996
0.016698863 0.03649161 0.25209999 2173996
0.017290113 0.036491223 0.25209999 2042410
0.017902622 0.036534239 0.25239998 1976363
0.018494537 0.036533818 0.25239998 2042156
0.019109117 0.036576804 0.2527 1976363
0.019701689 0.036576334 0.2527 1976363
0.02035849 0.036691643 0.25349998 1647911
0.020952895 0.03669114 0.25349998 1450532
0.021572774 0.036734045 0.2538 1187364
0.022246439 0.036863759 0.25470001 2897982
0.022843581 0.036863197 0.25470001 3621192
0.023523519 0.03699287 0.25560001 3358020
0.024179339 0.0370791 0.25619999 1515816
0.024866955 0.037208725 0.25709999 857886
0.025529044 0.037294909 0.2577 990499
0.026254756 0.037467908 0.25889999 924706
0.02695494 0.037597463 0.25979999 924452
0.027563816 0.037596751 0.25979999 990245
0.028270256 0.037726261 0.26069999 793636
0.028947646 0.037812337 0.2613 793636
0.029673059 0.037956271 0.26229998 859429
0.030391572 0.038085707 0.26319999 991015
0.031078925 0.038171709 0.2638 925224
0.031817108 0.038315568 0.26479998 991017
0.03251094 0.038401525 0.26539999 1122603
0.033257473 0.038545337 0.26639998 991017
0.033919629 0.038587838 0.2667 859690
0.034544282 0.038586922 0.2667 1714999
0.035208452 0.038629379 0.26699999 2043966
0.035967924 0.038773093 0.26800001 2109759
0.036636457 0.038815513 0.2683 2241347
0.037361898 0.038915776 0.26899999 2438726
0.038132939 0.039059415 0.26999998 2438726
0.038908619 0.039203033 0.271 2504519
0.039732702 0.03939002 0.2723 2439242
0.040829677 0.039837349 0.27539998 2505035
0.041474264 0.03983622 0.27539998 2636621
0.042592905 0.040283483 0.27849999 2570828
0.043865751 0.040860865 0.2825 2768207
0.045046929 0.041336957 0.28579998 2834000
0.046243493 0.041813001 0.28909999 2834000
-0.016999692 0.041382104 0.2814 5133398
-0.01621245 0.041059352 0.27919999 1383197
-0.015424341 0.040707164 0.27680001 990763
-0.014626092 0.040296108 0.27399999 1319728
-0.013983839 0.040296808 0.27399999 1320241
-0.01334155 0.04029749 0.27399999 1057069
-0.012666785 0.040195197 0.27329999 464934
-0.012026076 0.04019583 0.27329999 201762
-0.011006242 0.038858034 0.2642 69913
-0.010300318 0.038535032 0.26199999 4120
-0.0096046813 0.038211994 0.25979999 3604
-0.0089331875 0.037947763 0.25799999 3604
-0.0082894787 0.03777175 0.2568 3343
-0.0076872949 0.037772227 0.2568 2572
-0.0070437044 0.03755204 0.25529999 2315
-0.0064298497 0.037464216 0.25470001 2315
-0.0058119181 0.03733224 0.2538 2316
-0.0051981895 0.037200239 0.2529 68366
-0.0045959479 0.037127052 0.25239998 68366
-0.0039849309 0.036950879 0.25119999 2316
-0.0033916926 0.036907073 0.2509 2316
-0.0027976127 0.036833823 0.25040001 68366
-0.0022102774 0.036834098 0.25040001 2316
-0.0016190407 0.036746092 0.2498 2316
-0.0010306069 0.036658067 0.24919999 68366
-0.00044551442 0.036614154 0.2489 68366
0.00013823625 0.036584932 0.24869999 2316
0.0007207673 0.03654097 0.24839999 2316
0.001303473 0.036541127 0.24839999 134159
0.0018861854 0.036541261 0.24839999 331538
0.0024738736 0.036614928 0.2489 594710
0.0030614552 0.036659155 0.24919999 857882
0.0036504492 0.036703363 0.24949999 1121056
0.0042357598 0.036703411 0.24949999 1121056
0.0048384639 0.036835853 0.25040001 989731
0.0054367231 0.036909416 0.2509 923938
0.0060397307 0.036997676 0.25149998 793120
0.0066534602 0.037130039 0.25239998 661534
0.0072455741 0.037129991 0.25239998 661280
0.0078470027 0.037174065 0.2527 792866
0.0084464941 0.037203394 0.2529 1055265
0.0090397708 0.037203286 0.2529 1186851
0.009633041 0.037203155 0.2529 1187364
0.010218218 0.037173592 0.2527 1253157
0.010811003 0.037173416 0.2527 1384741
0.011390242 0.037129089 0.25239998 1450534
0.011968063 0.037084747 0.25209999 1581605
0.012559415 0.03708452 0.25209999 1647398
0.013119453 0.036996007 0.25149998 1581605
0.013709372 0.036995739 0.25149998 1647398
0.014282221 0.036951322 0.25119999 1647652
0.014871408 0.036951017 0.25119999 1581859
0.015442116 0.036906555 0.2509 1647652
0.016030569 0.036906209 0.2509 1647652
0.016599128 0.036861703 0.25059998 1647398
0.017186841 0.036861323 0.25059998 1647398
0.017774537 0.036860913 0.25059998 1647398
0.018362207 0.036860488 0.25059998 1581605
0.018949861 0.036860034 0.25059998 1516327
0.019560881 0.036903702 0.2509 1450534
0.020197378 0.036991466 0.25149998 1122083
0.020787073 0.036990955 0.25149998 990497
0.021402242 0.037034556 0.2518 792606
0.022018794 0.037078135 0.25209999 3687498
0.022681568 0.037195228 0.2529 4870487
0.023329655 0.037282884 0.25349998 4870487
0.024008846 0.037414636 0.25439999 4870485
0.024692219 0.037546366 0.25529999 2962488
0.025409508 0.0377222 0.25650001 1252644
0.026101964 0.037853878 0.25740001 1121058
0.026860857 0.038073771 0.25889999 990245
0.027467607 0.038073052 0.25889999 1056038
0.028171916 0.03820467 0.25979999 859429
0.028880406 0.038336251 0.26069999 925222
0.029604394 0.038482517 0.2617 925222
0.030321483 0.038614053 0.2626 1122601
0.031042751 0.038745567 0.26350001 1122603
0.031744163 0.038847644 0.2642 1254189
0.032473315 0.038979109 0.2651 1188396
0.033181671 0.039081138 0.2658 1122603
0.033842392 0.039124329 0.26609999 1188142
0.034465626 0.039123401 0.26609999 1648693
0.035167929 0.039210662 0.2667 2109759
0.035832737 0.039253794 0.26699999 2109759
0.036594488 0.03939981 0.26800001 2438726
0.037263654 0.039442901 0.2683 2438726
0.037990667 0.039544765 0.26899999 2307656
0.038763978 0.039690711 0.26999998 2373449
0.039541923 0.039836634 0.271 2505035
0.040517226 0.040173616 0.27329999 2570828
0.041156881 0.040172484 0.27329999 2636875
0.042270575 0.040626999 0.2764 2768461
0.043585055 0.041257836 0.2807 2768461
0.045045689 0.042006209 0.28579998 2900047
0.046002287 0.042269494 0.28759998 2900047
-0.016847866 0.041667767 0.2789 3423039
-0.016211672 0.041713372 0.27919999 1120284
-0.015423593 0.041355573 0.27680001 1385775
-0.014625374 0.040937979 0.27399999 1385775
-0.013983141 0.040938687 0.27399999 1122349
-0.013340876 0.040939376 0.27399999 727591
-0.012272201 0.039565414 0.26479998 333087
-0.011567838 0.039282143 0.26289999 201501
-0.010872354 0.038998846 0.26100001 200983
-0.010201476 0.038775276 0.2595 135190
-0.0095376046 0.038551692 0.25799999 3345
-0.0088911299 0.038372904 0.2568 3345
-0.0082502579 0.038194094 0.25560001 68879
-0.007650909 0.038194567 0.25560001 2572
-0.0070267096 0.038060535 0.25470001 2569
-0.0064142826 0.037971303 0.25409999 2569
-0.0057909116 0.0377924 0.2529 2316
-0.0051875366 0.037718061 0.25239998 68366
-0.0045792065 0.037583936 0.25149998 68366
-0.0039719082 0.037419897 0.25040001 68366
-0.0033724569 0.037285723 0.24949999 2318
-0.0027783297 0.037166476 0.24869999 2061
-0.002195003 0.037166756 0.24869999 2316
-0.0016058309 0.037032515 0.24779999 2316
-0.0010225228 0.036958031 0.2473 134159
-0.00044137082 0.036868576 0.24669999 68366
0.00013731004 0.036868773 0.24669999 68620
0.00071512908 0.036824118 0.2464 265999
0.0012931229 0.036824275 0.2464 397585
0.0018711234 0.036824409 0.2464 660757
0.0024521118 0.036869358 0.24669999 857364
0.0030345127 0.036914289 0.24699999 923157
0.0036212511 0.036989089 0.24749999 791573
0.0042018499 0.036989145 0.24749999 923159
0.0047940454 0.037078854 0.2481 989470
0.0053890557 0.037168533 0.24869999 1121056
0.00598448 0.037243254 0.24919999 858911
0.0065927939 0.03737773 0.25009999 858911
0.007188105 0.037422523 0.25040001 792866
0.0077817137 0.037452344 0.25059998 792866
0.0083795991 0.037497092 0.2509 924192
0.0089788847 0.037541818 0.25119999 924192
0.0095681483 0.037541687 0.25119999 793120
0.010157401 0.037541531 0.25119999 858913
0.010746649 0.037541363 0.25119999 1055778
0.011335888 0.037541173 0.25119999 1055778
0.011925118 0.037540961 0.25119999 1186849
0.012499391 0.037495896 0.2509 1252642
0.013072245 0.037450809 0.25059998 1121054
0.013632777 0.037375815 0.25009999 1055261
0.014219378 0.037375521 0.25009999 1121054
0.014805965 0.037375208 0.25009999 1252640
0.015374075 0.037330046 0.2498 1252640
0.015940757 0.037284862 0.24949999 1186847
0.016525889 0.037284493 0.24949999 1121567
0.017090425 0.037239268 0.24919999 1187360
0.017653542 0.037194028 0.2489 1187362
0.018237209 0.037193604 0.2489 1187362
0.018820854 0.037193149 0.2489 1121571
0.019427866 0.03723751 0.24919999 1055778
0.020060359 0.037326682 0.2498 858659
0.020646045 0.037326168 0.2498 924452
0.021257209 0.037370462 0.25009999 1121571
0.021869754 0.037414741 0.25040001 3226947
0.022501618 0.037488881 0.2509 5001812
0.023172606 0.037622765 0.2518 4672847
0.023819473 0.037711795 0.25239998 4606800
0.024517486 0.037875514 0.25349998 4672593
0.025230529 0.038054146 0.25470001 3291455
0.025949165 0.038232755 0.2559 1449251
0.026704522 0.038456161 0.25740001 1121571
0.027307738 0.038455438 0.25740001 1187364
0.028041039 0.038633969 0.2586 1056038
0.028779928 0.038812466 0.25979999 1056038
0.02952441 0.038990952 0.26100001 1122601
0.03025138 0.039139532 0.26199999 1188394
0.03100656 0.039317951 0.26319999 1319980
0.031695236 0.039406721 0.2638 1385773
0.032435674 0.039555218 0.26479998 1385773
0.033130828 0.03964394 0.26539999 1385773
0.033803314 0.039702769 0.2658 1319728
0.034425817 0.039701816 0.2658 1385521
0.035087842 0.039745662 0.26609999 1780796
0.035791487 0.039834294 0.2667 2175554
0.036456928 0.039878096 0.26699999 2110277
0.037179288 0.039981611 0.26769999 2176070
0.037890755 0.040070176 0.2683 2439242
0.038619332 0.040173646 0.26899999 2439242
0.039351143 0.04027709 0.26969999 2505035
0.0402789 0.040574655 0.27169999 2636621
0.040914789 0.040573511 0.27169999 3030863
0.04196354 0.040975541 0.2744 2965070
0.043195665 0.041541785 0.2782 3030863
0.044981387 0.04261566 0.2854 3030863
0.045649115 0.042614382 0.2854 3162449
0.04680365 0.043061018 0.28839999 3030863
-0.016847054 0.042321008 0.2789 1581607
-0.014133596 0.04018366 0.26479998 1450798
-0.013512951 0.040184364 0.26479998 727845
-0.012799765 0.039896704 0.26289999 464673
-0.012127899 0.039715249 0.2617 398108
-0.011457227 0.03951858 0.2604 200729
-0.010796787 0.039337065 0.25920001 200981
-0.010141948 0.039155524 0.25799999 69395
-0.0095037958 0.039019484 0.25709999 3345
-0.0088698408 0.038883422 0.25619999 3088
-0.0082497653 0.038792863 0.25560001 3086
-0.0076504382 0.038793355 0.25560001 2572
-0.0070262617 0.038657222 0.25470001 2569
-0.006413857 0.038566593 0.25409999 2826
-0.0057905084 0.038384873 0.2529 2316
-0.0051871547 0.038309377 0.25239998 68366
-0.0045788465 0.03817315 0.25149998 68366
-0.0039668125 0.037961002 0.25009999 68366
-0.0033680871 0.037824728 0.24919999 68366
-0.0027713345 0.037658069 0.2481 2059
-0.0021894358 0.037658352 0.2481 2316
-0.0016003961 0.037491646 0.24699999 68366
-0.0010165053 0.03732492 0.24589999 68366
-0.00043865838 0.037234068 0.24529999 134159
0.0001364395 0.03715837 0.24479999 331792
0.00070978107 0.037113015 0.2445 726550
0.0012832977 0.037113171 0.2445 923157
0.0018568209 0.037113313 0.2445 988950
0.0024333319 0.037158959 0.24479999 923157
0.0030112555 0.037204593 0.24509999 857364
0.0035891274 0.037235029 0.24529999 1053462
0.0041645444 0.037235081 0.24529999 921876
0.0047515584 0.037326194 0.24589999 791573
0.0053392211 0.037402105 0.2464 923159
0.0059388359 0.037538718 0.2473 924188
0.006532127 0.037614591 0.24779999 924188
0.0071306331 0.037705611 0.24839999 1055776
0.0077226358 0.037751082 0.24869999 924190
0.0083227223 0.037826892 0.24919999 989983
0.0089179995 0.037872314 0.24949999 989983
0.0095032537 0.037872188 0.24949999 792606
0.010088501 0.037872039 0.24949999 792606
0.010673741 0.037871871 0.24949999 792606
0.011258971 0.037871677 0.24949999 726813
0.011844193 0.037871461 0.24949999 922909
0.012429402 0.037871223 0.24949999 988702
0.012998952 0.037825432 0.24919999 726813
0.013567084 0.037779626 0.2489 726813
0.01413948 0.037748978 0.24869999 792604
0.014722764 0.037748665 0.24869999 924190
0.015287568 0.037702791 0.24839999 792604
0.015870115 0.037702437 0.24839999 792604
0.016432775 0.037656527 0.2481 726811
0.016994011 0.037610602 0.24779999 792604
0.017553823 0.037564654 0.24749999 924192
0.018134188 0.037564222 0.24749999 792606
0.018714532 0.037563767 0.24749999 792352
0.019294852 0.037563294 0.24749999 792352
0.019899245 0.037608333 0.24779999 792868
0.020480227 0.037607826 0.24779999 924454
0.021137675 0.037743878 0.24869999 1186849
0.021720717 0.037743323 0.24869999 3423811
0.022348572 0.037818629 0.24919999 4935249
0.022987949 0.037909091 0.2498 4672077
0.023630109 0.037999529 0.25040001 4606284
0.024323408 0.038165815 0.25149998 4343112
0.02503174 0.038347259 0.2527 4146249
0.02576595 0.038559031 0.25409999 3685698
0.026517062 0.038785938 0.25560001 2108464
0.027116042 0.038785204 0.25560001 1055776
0.027877625 0.039012063 0.25709999 1121831
0.028646216 0.039238896 0.2586 1319210
0.029421795 0.039465703 0.26010001 1385003
0.030135088 0.039601438 0.26100001 1516589
0.030899679 0.039797835 0.26229998 1583152
0.031658314 0.039979037 0.26350001 1648945
0.032361284 0.040084347 0.2642 1648945
0.033055004 0.040174458 0.26479998 1714738
0.033751503 0.040264554 0.26539999 1583154
0.034373056 0.040263601 0.26539999 1319982
0.035047304 0.040323306 0.2658 1649210
0.035750221 0.040413331 0.26639998 2241347
0.036414947 0.040457822 0.2667 2110277
0.037081029 0.040502287 0.26699999 2439242
0.037804946 0.040607408 0.26769999 2505035
0.038474686 0.040651836 0.26800001 2505035
0.039204132 0.040756915 0.2687 2570828
0.040025741 0.040952969 0.26999998 2636621
0.04065764 0.040951818 0.26999998 2899023
0.041702371 0.041360162 0.27269998 3030609
0.043194439 0.042193115 0.2782 3161936
0.044002965 0.042343535 0.27919999 3227729
0.04518399 0.042842735 0.2825 3228242
0.046315476 0.043281227 0.2854 3162449
-0.015374032 0.040802367 0.26479998 1713708
-0.014647617 0.040510353 0.26289999 1582384
-0.01396743 0.040326163 0.2617 1253419
-0.013354071 0.040326864 0.2617 661282
-0.012691994 0.040173445 0.26069999 398110
-0.012053112 0.040081635 0.26010001 200983
-0.011417014 0.039989807 0.2595 135190
-0.010783698 0.039897949 0.25889999 69395
-0.010141378 0.039759841 0.25799999 69395
-0.0095032509 0.0396217 0.25709999 68881
-0.0088693192 0.039483536 0.25619999 2574
-0.0082589481 0.039437819 0.2559 2059
-0.0076589384 0.039438307 0.2559 2316
-0.007034081 0.039300073 0.255 2059
-0.0064134239 0.039161816 0.25409999 2316
-0.005803836 0.039069764 0.25349998 68366
-0.0051929336 0.038946874 0.2527 68366
-0.0045784824 0.038762297 0.25149998 68366
-0.0039664702 0.038546879 0.25009999 68366
-0.0033677674 0.038408492 0.24919999 68366
-0.0027676865 0.038193028 0.24779999 2316
-0.0021865119 0.038193312 0.24779999 2316
-0.0015962551 0.037977803 0.2464 68366
-0.0010137935 0.037808504 0.24529999 134413
-0.00043666002 0.03765459 0.24429999 397585
0.00013601546 0.037562314 0.2437 856849
0.00070617534 0.037485424 0.24319999 1185814
0.0012750473 0.037439346 0.2429 1120534
0.0018447969 0.037439484 0.2429 1252120
0.0024145523 0.0374396 0.2429 1251607
0.0029879985 0.037485935 0.24319999 1185814
0.0035613929 0.03751684 0.24339999 1053460
0.0041323332 0.037516899 0.24339999 987667
0.004714869 0.037609413 0.24399999 791058
0.0052980548 0.037686497 0.2445 725265
0.0058859866 0.03777897 0.24509999 659985
0.0064740973 0.037856013 0.2456 725778
0.0070674224 0.037948452 0.2462 792089
0.0076511381 0.037979208 0.2464 1121054
0.0082491487 0.038071603 0.24699999 1055776
0.008839245 0.038117737 0.2473 1055776
0.0094193183 0.038117606 0.2473 989983
0.010007469 0.038148277 0.24749999 989983
0.010587996 0.038148101 0.24749999 726559
0.011182054 0.038194146 0.24779999 792352
0.011763266 0.038193934 0.24779999 726813
0.012344468 0.038193703 0.24779999 792606
0.012941309 0.038239688 0.2481 661020
0.01350684 0.038193174 0.24779999 726813
0.01407095 0.038146634 0.24749999 726813
0.014651398 0.038146313 0.24749999 726813
0.015201061 0.03806892 0.24699999 661020
0.015761137 0.038022324 0.24669999 661020
0.016339662 0.038021948 0.24669999 595227
0.016897596 0.037975315 0.2464 661020
0.017461199 0.037944075 0.2462 792606
0.018016512 0.037897404 0.24589999 792606
0.018593086 0.037896946 0.24589999 989985
0.019193022 0.037942708 0.2462 1055778
0.019786319 0.037973035 0.2464 1121317
0.020363994 0.037972514 0.2464 989731
0.020941649 0.037971977 0.2464 2764596
0.021571679 0.038063884 0.24699999 4672593
0.022177594 0.038109533 0.2473 4803661
0.022803292 0.038185991 0.24779999 4672075
0.023487927 0.038354877 0.2489 4540491
0.024158347 0.038492925 0.2498 4343112
0.024823051 0.038615528 0.25059998 3949124
0.025592865 0.038892206 0.25239998 3949124
0.026329599 0.039107218 0.2538 3883592
0.026924344 0.039106488 0.2538 2238767
0.027714217 0.03938308 0.25560001 1121569
0.028512495 0.039659642 0.25740001 1582120
0.029285237 0.039889947 0.25889999 1714222
