# .PCD v0.7 - Point Cloud Data file format
VERSION 0.7
FIELDS x y z rgb
SIZE 4 4 4 4
TYPE F F F U
COUNT 1 1 1 1
WIDTH 1144
HEIGHT 1
VIEWPOINT 0 0 0 1 0 0 0
POINTS 1144
DATA ascii
-0.037385467 -0.14571518 0.3845 5855828
-0.0364899 -0.14571831 0.3845 5855828
-0.035594277 -0.14572136 0.3845 5855828
-0.034761768 -0.14598967 0.38519999 5658449
-0.033917159 -0.14622004 0.3858 5790035
-0.033018343 -0.14622295 0.3858 5790035
-0.032236028 -0.14675646 0.3872 5790035
-0.019591853 -0.15380631 0.4057 5593428
-0.018645881 -0.15380837 0.4057 5593428
-0.017734773 -0.15411365 0.40649998 5593428
-0.016786864 -0.15411559 0.40649998 5593428
-0.015866192 -0.15438285 0.40719998 5725014
-0.014945888 -0.154688 0.40799999 5593428
-0.013994378 -0.15468974 0.40799999 5593428
-0.013065212 -0.15495685 0.40869999 5593428
-0.012112008 -0.15495849 0.40869999 5659221
-0.011158773 -0.15496005 0.40869999 5593428
0.00028041255 -0.15413988 0.40649998 5527635
0.0012263763 -0.15383728 0.4057 5527635
0.0021729053 -0.15383799 0.4057 5527635
0.0031194463 -0.15383862 0.4057 5396049
0.0040589832 -0.15357377 0.405 5593428
0.0050039124 -0.15357427 0.405 5527635
0.0059488509 -0.15357472 0.405 5395796
0.1010842 -0.15166301 0.40059999 5856347
0.10237131 -0.15218839 0.40199998 5856347
0.10369055 -0.15275158 0.40349999 5856347
0.10519819 -0.15357968 0.4057 6053726
0.10634972 -0.15387776 0.40649998 5856347
0.10747849 -0.15413792 0.40719998 5856347
0.10863708 -0.15443593 0.40799999 5856347
0.10958443 -0.15443106 0.40799999 5856347
0.11072135 -0.15469112 0.40869999 5724761
0.11167017 -0.1546862 0.40869999 5790554
0.11242606 -0.15441631 0.40799999 5856347
0.11315083 -0.15410858 0.40719998 5856347
0.11389983 -0.15383871 0.40649998 5856347
0.11441951 -0.1532661 0.405 5856347
0.11493215 -0.15269347 0.40349999 5790554
0.11566746 -0.15242358 0.40279999 5856347
0.11660211 -0.1524186 0.40279999 5856347
0.11709901 -0.15184601 0.40129998 5987933
0.11758884 -0.15127343 0.3998 5987933
0.1183088 -0.15100357 0.39909998 6053726
0.15750654 -0.15025319 0.39769998 5593945
0.1584266 -0.15024814 0.39769998 5790554
0.15934661 -0.1502431 0.39769998 5790554
0.16026658 -0.15023808 0.39769998 5724761
0.16147022 -0.15049751 0.39839998 5790554
0.16267706 -0.15075694 0.39909998 5790554
0.16360015 -0.15075195 0.39909998 5790554
0.16514155 -0.15131356 0.40059999 5724761
0.16606805 -0.15130858 0.40059999 5658968
0.16728631 -0.15156801 0.40129998 5724761
0.16884312 -0.15212961 0.40279999 5658968
0.17006963 -0.15238905 0.40349999 5658968
0.17129938 -0.15264848 0.40419999 5658968
0.17223403 -0.15264356 0.40419999 5658968
0.17381132 -0.15320514 0.4057 5528152
0.17509396 -0.15350233 0.40649998 5528152
0.176337 -0.1537618 0.40719998 5462359
0.17762677 -0.15405904 0.40799999 5528152
0.17887647 -0.15431853 0.40869999 5462872
0.17982139 -0.15431373 0.40869999 5528665
0.1807663 -0.15430893 0.40869999 5462874
0.18171118 -0.15430419 0.40869999 5462874
0.18265605 -0.15429945 0.40869999 5462361
0.18328644 -0.1540305 0.40799999 5396568
0.18355232 -0.15345956 0.40649998 5396568
0.18412898 -0.15315299 0.4057 5462361
0.18474756 -0.15288419 0.405 5462361
0.18467514 -0.1520492 0.40279999 5462361
0.18523765 -0.15174274 0.40199998 5396568
0.1858428 -0.15147412 0.40129998 5528154
0.18607235 -0.15090358 0.3998 5462361
0.18666914 -0.15063506 0.39909998 5462361
0.18759173 -0.15063077 0.39909998 5396568
0.18785301 -0.15009816 0.39769998 5462361
0.18806037 -0.14952786 0.3962 5462361
0.18855147 -0.14159569 0.37529999 5396566
0.18911637 -0.14136589 0.37469998 5199187
0.18932363 -0.14087206 0.3734 5462359
0.19018702 -0.14086877 0.3734 5199189
0.19105041 -0.14086547 0.3734 5199189
0.19191387 -0.14086226 0.3734 5331288
0.19277731 -0.14085907 0.3734 5133909
0.19364083 -0.14085594 0.3734 5068116
0.19450438 -0.14085285 0.3734 5068116
0.19604811 -0.14134018 0.37469998 5068116
0.19691473 -0.14133719 0.37469998 5133909
0.19809811 -0.14156057 0.37529999 5068116
0.24002555 -0.14805318 0.39269999 4542292
0.24136625 -0.1483164 0.39339998 4542292
0.24184819 -0.14805186 0.39269999 4542292
0.24275966 -0.14805134 0.39269999 4476497
0.24323694 -0.14778696 0.39199999 4410704
-0.038622711 -0.1461044 0.38789999 5921621
-0.037719227 -0.14610758 0.38789999 5855828
-0.036815684 -0.14611073 0.38789999 5855828
-0.021565322 -0.15342987 0.40719998 5724244
-0.020656375 -0.15373351 0.40799999 5593428
-0.019705018 -0.15373562 0.40799999 5593428
-0.018785795 -0.15400144 0.40869999 5593428
-0.017902542 -0.15460634 0.41029999 5593428
-0.01694571 -0.15460829 0.41029999 5593428
-0.016016118 -0.15487394 0.41099998 5593428
-0.015086894 -0.15517725 0.4118 5593428
-0.014177915 -0.15574425 0.41329998 5593428
-0.013239527 -0.15604743 0.41409999 5527635
-0.012297377 -0.15635057 0.41489998 5593428
-0.011479806 -0.15842479 0.42039999 5593428
-0.0016259721 -0.154028 0.40869999 5527635
-0.00067242538 -0.15402888 0.40869999 5396049
0.00028113721 -0.1540297 0.40869999 5330256
0.0012347144 -0.15403046 0.40869999 5396049
0.0021802736 -0.15346584 0.40719998 5527635
0.0031249956 -0.15320265 0.40649998 5527635
0.0040654596 -0.15290171 0.4057 5658451
0.0050120843 -0.15290222 0.4057 5526865
0.0059704678 -0.15320416 0.40649998 5526865
0.10015813 -0.15074155 0.40059999 5856349
0.1014421 -0.15126374 0.40199998 5987935
0.10275797 -0.15182351 0.40349999 5987935
0.10408073 -0.15238319 0.405 5790556
0.1054104 -0.15294284 0.40649998 5856349
0.10653766 -0.1532014 0.40719998 5856347
0.10769448 -0.15349758 0.40799999 5856347
0.10864194 -0.15349273 0.40799999 5856347
0.10977734 -0.15375119 0.40869999 5856347
0.11072627 -0.15374629 0.40869999 5790554
0.11148385 -0.15347804 0.40799999 5856347
0.11221056 -0.15317218 0.40719998 5856347
0.1129613 -0.15290393 0.40649998 5856347
0.11368066 -0.15259807 0.4057 5856347
0.11442448 -0.1523298 0.405 5856347
0.11493713 -0.15176062 0.40349999 5856347
0.11567247 -0.15149237 0.40279999 5987933
0.11660713 -0.15148737 0.40279999 5856347
0.11689974 -0.15065499 0.40059999 5856347
0.11759386 -0.15034914 0.3998 5856347
0.15539742 -0.14908062 0.39699998 5593945
0.15659153 -0.14933836 0.39769998 5593945
0.15751162 -0.14933331 0.39769998 5593945
0.15843166 -0.14932822 0.39769998 5593945
0.15963212 -0.14958599 0.39839998 5659738
0.16055369 -0.14958096 0.39839998 5593945
0.16147524 -0.14957593 0.39839998 5659738
0.16268206 -0.14983371 0.39909998 5724761
0.16360514 -0.14982872 0.39909998 5724761
0.16514656 -0.15038684 0.40059999 5658968
0.16636321 -0.15064462 0.40129998 5658968
0.16729127 -0.15063964 0.40129998 5593175
0.16851273 -0.15089744 0.40199998 5724761
0.1700746 -0.15145554 0.40349999 5462359
0.17100765 -0.15145059 0.40349999 5396566
0.17194065 -0.15144567 0.40349999 5396566
0.17351632 -0.15200377 0.405 5396566
0.17475426 -0.15226158 0.4057 5462359
0.17603873 -0.15255694 0.40649998 5396566
0.17728335 -0.15281478 0.40719998 5396566
0.17857493 -0.15311016 0.40799999 5528152
0.17951821 -0.15310535 0.40799999 5528152
0.18077108 -0.15336323 0.40869999 5593947
0.18171592 -0.15335844 0.40869999 5528154
0.18266076 -0.15335372 0.40869999 5462361
0.18329112 -0.15308635 0.40799999 5396568
0.18355696 -0.1525189 0.40649998 5396568
0.18449666 -0.15251425 0.40649998 5462359
0.18475212 -0.15194692 0.405 5528152
0.18532151 -0.15164223 0.40419999 5462359
0.18593331 -0.15137513 0.40349999 5396566
0.18654186 -0.15110807 0.40279999 5462359
0.18710063 -0.15080355 0.40199998 5331288
0.18737504 -0.15027401 0.40059999 5331288
0.18830107 -0.15026969 0.40059999 5462361
0.18922707 -0.15026541 0.40059999 5396568
0.1894411 -0.14969853 0.39909998 5396568
0.18936199 -0.14890668 0.39699998 5264982
0.18956074 -0.14833996 0.3955 5264982
0.18890662 -0.14098915 0.37599999 5396566
0.18911979 -0.14049825 0.37469998 5395796
0.18963118 -0.14023237 0.37399998 5395796
0.19019033 -0.14000405 0.3734 5199187
0.19105366 -0.14000076 0.3734 5199187
0.19191703 -0.1399975 0.3734 5199189
0.19278049 -0.13999429 0.3734 5199189
0.19364397 -0.13999113 0.3734 5133909
0.19481999 -0.14021295 0.37399998 5068116
0.19605115 -0.14047231 0.37469998 5199702
0.19723304 -0.14069422 0.37529999 5068116
-0.022478295 -0.1522246 0.40649998 5724244
-0.021609902 -0.15278855 0.40799999 5658451
-0.020693969 -0.15305287 0.40869999 5658451
-0.019779559 -0.1533546 0.4095 5724244
-0.018893559 -0.1539184 0.41099998 5724244
-0.017969979 -0.15422001 0.4118 5724244
-0.017009584 -0.15422195 0.4118 5724244
-0.016080333 -0.15452343 0.41259998 5658451
-0.015202278 -0.15538666 0.41489998 5593428
-0.014289444 -0.15598767 0.4165 5593428
-0.013369112 -0.15658861 0.4181 5593428
-0.012438323 -0.15715207 0.41959998 5527635
-0.011481388 -0.15745331 0.42039999 5593175
-0.010563152 -0.15839119 0.42289999 5527382
-0.0095947273 -0.15869232 0.42369998 5527635
-0.0036153342 -0.15660241 0.4181 5527635
-0.0026347768 -0.15630378 0.41729999 5330256
-0.0016424096 -0.15454428 0.41259998 5396819
-0.00067706488 -0.15394586 0.41099998 5396819
0.00028192688 -0.15394668 0.41099998 5265233
0.0012388198 -0.15368526 0.41029999 5265233
0.0021876425 -0.15308663 0.40869999 5527635
0.0031297784 -0.1525254 0.40719998 5527635
0.0040799556 -0.15252596 0.40719998 5658451
0.0050214943 -0.15226425 0.40649998 5526865
0.0059700571 -0.1522647 0.40649998 5526865
0.006893097 -0.15170324 0.405 5658451
0.10033774 -0.15007721 0.40129998 5856349
0.10164862 -0.15063354 0.40279999 5856349
0.10314467 -0.15145159 0.405 5987935
0.10426536 -0.15170863 0.4057 5856349
0.1055967 -0.15226479 0.40719998 5856349
0.10693493 -0.15282089 0.40869999 5856347
0.1078841 -0.15281606 0.40869999 5856347
0.10883321 -0.1528112 0.40869999 5856347
0.10978223 -0.1528063 0.40869999 5856347
0.11073121 -0.15280139 0.40869999 5856347
0.1114888 -0.15253477 0.40799999 5790554
0.11221551 -0.15223074 0.40719998 5724761
0.11296625 -0.15196408 0.40649998 5856347
0.11368564 -0.15166007 0.4057 5856347
0.11420345 -0.15109436 0.40419999 5987933
0.11494212 -0.15082772 0.40349999 6053726
0.11544771 -0.15026204 0.40199998 6053726
0.11638055 -0.15025704 0.40199998 5987935
0.11690476 -0.14972876 0.40059999 5987935
0.11759888 -0.14942475 0.3998 5987935
0.15540251 -0.14816231 0.39699998 5658968
0.15659663 -0.14841843 0.39769998 5593945
0.15751669 -0.14841335 0.39769998 5659738
0.15843673 -0.14840826 0.39769998 5659738
0.15963718 -0.1486644 0.39839998 5659738
0.16055875 -0.14865935 0.39839998 5528152
0.16148026 -0.1486543 0.39839998 5528152
0.16268709 -0.14891046 0.39909998 5528152
0.16361015 -0.14890543 0.39909998 5593945
0.16515157 -0.14946008 0.40059999 5593945
0.16636822 -0.14971624 0.40129998 5659738
0.16729625 -0.14971124 0.40129998 5528152
0.16851771 -0.1499674 0.40199998 5528152
0.1697845 -0.15026087 0.40279999 5528152
0.1707159 -0.15025593 0.40279999 5528152
0.17164728 -0.150251 0.40279999 5528152
0.17317846 -0.15076831 0.40419999 5396566
0.17445762 -0.15106182 0.405 5462359
0.17569715 -0.15131801 0.4057 5462359
0.17698345 -0.15161152 0.40649998 5462359
0.17822963 -0.15186773 0.40719998 5593945
0.17917103 -0.1518629 0.40719998 5462359
0.18046626 -0.15215646 0.40799999 5528152
0.18140945 -0.15215166 0.40799999 5462359
0.1826655 -0.15240796 0.40869999 5462359
0.18329583 -0.1521422 0.40799999 5462359
0.18387769 -0.15183918 0.40719998 5396566
0.184819 -0.15183453 0.40719998 5462359
0.18544094 -0.1515689 0.40649998 5528152
0.18601382 -0.15126607 0.4057 5462359
0.18662901 -0.15100053 0.405 5396566
0.18719468 -0.15069777 0.40419999 5396568
0.18780318 -0.15043235 0.40349999 5397081
0.18840843 -0.15016697 0.40279999 5331288
0.18933952 -0.15016261 0.40279999 5397081
0.18989268 -0.14986005 0.40199998 5199702
0.19048962 -0.14959483 0.40129998 5133909
0.19070174 -0.14903145 0.3998 5199702
0.19095483 -0.1485054 0.39839998 5397081
0.1915386 -0.14824036 0.39769998 5199702
0.19139326 -0.14741625 0.3955 5133909
0.18942608 -0.13985419 0.37529999 5396566
0.18963459 -0.13936633 0.37399998 5199187
0.19019367 -0.13913937 0.3734 5133396
0.19074997 -0.13891247 0.37279999 5264982
0.19161189 -0.13890919 0.37279999 5199189
0.19247392 -0.13890596 0.37279999 5133396
0.19333594 -0.13890277 0.37279999 5133909
0.19451056 -0.1391232 0.3734 5133909
0.19568798 -0.13934363 0.37399998 5199702
0.19692074 -0.13960139 0.37469998 5199702
0.19810401 -0.13982193 0.37529999 5133909
-0.022563506 -0.15184344 0.40799999 5724242
-0.021649186 -0.1521062 0.40869999 5790035
-0.020777136 -0.15270382 0.41029999 5724242
-0.019854108 -0.15296648 0.41099998 5724242
-0.018932374 -0.15326628 0.4118 5658449
-0.01803742 -0.15382658 0.41329998 5658449
-0.017073464 -0.15382853 0.41329998 5658449
-0.016171841 -0.15442593 0.41489998 5526863
-0.0152334 -0.15472554 0.41569999 5724242
-0.014318644 -0.15532283 0.41729999 5658449
-0.013393193 -0.15588288 0.4188 5396049
-0.01249036 -0.1568151 0.42129999 5527635
-0.011529396 -0.15711446 0.42209998 5593428
-0.010564672 -0.1574138 0.42289999 5593428
-0.0095961848 -0.15771304 0.42369998 5527635
-0.0086239399 -0.15801224 0.42449999 5527635
-0.0076335487 -0.15801363 0.42449999 5724244
-0.0066681723 -0.15861049 0.42609999 5724244
-0.0056420406 -0.15771836 0.42369998 5658451
-0.0046270862 -0.15682614 0.42129999 5526865
-0.0036163914 -0.15563604 0.4181 5396049
-0.0026357679 -0.15533927 0.41729999 5396049
-0.001655673 -0.1547446 0.41569999 5396819
-0.00068302837 -0.1541499 0.41409999 5396819
0.00028326001 -0.15415072 0.41409999 5462612
0.0012450368 -0.15359308 0.41259998 5462612
0.0021912653 -0.15243979 0.4095 5396819
0.0031353331 -0.15188201 0.40799999 5199440
0.0040794243 -0.15158476 0.40719998 5330256
0.0050210268 -0.15132469 0.40649998 5330256
0.0059696506 -0.15132512 0.40649998 5396049
0.098477378 -0.14915849 0.40129998 5856349
0.099409893 -0.14915393 0.40129998 5856349
0.1007174 -0.14970684 0.40279999 5987933
0.10200656 -0.15022253 0.40419999 5987933
0.10332765 -0.15077533 0.4057 5856347
0.10465562 -0.15132804 0.40719998 5856347
0.10580897 -0.15162058 0.40799999 5856347
0.10693976 -0.15187588 0.40869999 5856347
0.10788897 -0.15187106 0.40869999 5856347
0.10883808 -0.15186621 0.40869999 5856347
0.10978714 -0.15186132 0.40869999 5790554
0.11073612 -0.15185639 0.40869999 5790554
0.11149374 -0.15159139 0.40799999 5724761
0.11222047 -0.15128921 0.40719998 5724761
0.11297121 -0.15102415 0.40649998 5790554
0.11369061 -0.150722 0.4057 5922910
0.11420842 -0.15015973 0.40419999 5725531
0.11494711 -0.14989471 0.40349999 5922910
0.11545272 -0.14933251 0.40199998 5922910
0.11638555 -0.14932749 0.40199998 6119521
0.11711405 -0.14906245 0.40129998 6119521
0.1176039 -0.14850029 0.3998 5987935
0.15936178 -0.14748317 0.39769998 5528152
0.1602817 -0.14747812 0.39769998 5593945
0.16120158 -0.14747305 0.39769998 5528152
0.16240677 -0.14772758 0.39839998 5593945
0.16332822 -0.14772256 0.39839998 5593945
0.16482678 -0.14823665 0.3998 5593945
0.16608302 -0.14852825 0.40059999 5528152
0.16700943 -0.14852326 0.40059999 5528152
0.16822924 -0.14877778 0.40129998 5528152
0.16915719 -0.14877281 0.40129998 5528152
0.17038178 -0.14902738 0.40199998 5593945
0.17131129 -0.14902245 0.40199998 5462359
0.17224078 -0.14901754 0.40199998 5462359
0.17381638 -0.14956866 0.40349999 5462359
0.17505242 -0.14982325 0.40419999 5462361
0.17633523 -0.15011491 0.405 5528154
0.17792809 -0.15066601 0.40649998 5528154
0.17886785 -0.15066119 0.40649998 5462361
0.18011719 -0.15091579 0.40719998 5396568
0.18141425 -0.15120751 0.40799999 5462361
0.18235739 -0.15120272 0.40799999 5462361
0.18330054 -0.15119798 0.40799999 5462361
0.18424366 -0.15119326 0.40799999 5462361
0.18518674 -0.15118857 0.40799999 5396568
0.18576489 -0.15088747 0.40719998 5462361
0.18638518 -0.1506235 0.40649998 5396568
0.18732479 -0.15061894 0.40649998 5462361
0.18789387 -0.150318 0.4057 5396568
0.18883163 -0.15031351 0.4057 5397081
0.1894419 -0.15004972 0.405 5331288
0.19037804 -0.15004531 0.405 5331288
0.19131415 -0.15004091 0.405 5199702
0.19153818 -0.14948088 0.40349999 5199702
0.19175534 -0.14892092 0.40199998 5331288
0.19201349 -0.1483981 0.40059999 5396568
0.19221699 -0.14783828 0.39909998 5396568
0.1921232 -0.14705628 0.39699998 5396568
0.18978289 -0.13924436 0.37599999 5462361
0.189638 -0.13850024 0.37399998 5199189
0.18989141 -0.13805246 0.37279999 5199189
0.19075325 -0.13804911 0.37279999 5199189
0.19161519 -0.13804582 0.37279999 5068116
0.19247715 -0.13804255 0.37279999 5002323
0.19333911 -0.13803935 0.37279999 5002323
0.19420113 -0.13803619 0.37279999 5133909
0.19506317 -0.13803308 0.37279999 5133909
0.1965559 -0.1384743 0.37399998 5133909
0.19742079 -0.13847128 0.37399998 5133909
0.19897497 -0.1389496 0.37529999 5068116
-0.02351718 -0.15089811 0.40799999 5724242
-0.022604482 -0.1511593 0.40869999 5724242
-0.02169377 -0.15145743 0.4095 5790035
-0.020814737 -0.15201439 0.41099998 5724242
-0.01989485 -0.1523124 0.4118 5724242
-0.018971194 -0.15261035 0.41259998 5526863
-0.018074317 -0.15316717 0.41409999 5724242
-0.017108437 -0.15316913 0.41409999 5790035
-0.0161737 -0.15346691 0.41489998 5658449
-0.015264524 -0.15406057 0.4165 5658451
-0.014347847 -0.15465418 0.4181 5461072
-0.013420469 -0.15521075 0.41959998 5330256
-0.012491996 -0.15584125 0.42129999 5396049
-0.011530972 -0.15613878 0.42209998 5593428
-0.010566185 -0.15643623 0.42289999 5396049
-0.0095976377 -0.15673365 0.42369998 5593428
-0.0086253295 -0.15703098 0.42449999 5593428
-0.0076348754 -0.15703236 0.42449999 5724244
-0.0066694394 -0.15762553 0.42609999 5724244
-0.0056432355 -0.15673892 0.42369998 5790037
-0.0046282094 -0.15585224 0.42129999 5658451
-0.0036304204 -0.15522446 0.41959998 5526865
-0.0026367535 -0.15437461 0.41729999 5526865
-0.0016565915 -0.15378366 0.41569999 5396049
-0.00068387995 -0.15319265 0.41409999 5527635
0.00028247168 -0.15319346 0.41409999 5527635
0.0012443145 -0.15263928 0.41259998 5527635
0.0021906109 -0.15149315 0.4095 5527635
0.0031347431 -0.15093884 0.40799999 5396049
0.0040788976 -0.15064344 0.40719998 5330256
0.005020563 -0.15038496 0.40649998 5396049
0.0059692496 -0.15038539 0.40649998 5264463
0.097549312 -0.14823505 0.40129998 5856347
0.098850034 -0.14878461 0.40279999 5856347
0.099786073 -0.14878003 0.40279999 5790554
0.1010721 -0.1492925 0.40419999 5987933
0.1023898 -0.14984186 0.4057 5987933
0.10353614 -0.15013264 0.40649998 5856347
0.10486599 -0.15068188 0.40799999 5856347
0.1059953 -0.15093562 0.40869999 5856347
0.10694458 -0.15093081 0.40869999 5856347
0.10789381 -0.15092596 0.40869999 5856347
0.10884297 -0.15092111 0.40869999 5790554
0.10979204 -0.1509162 0.40869999 5856347
0.11074107 -0.15091129 0.40869999 5790554
0.1114987 -0.15064788 0.40799999 5724761
0.11222543 -0.15034755 0.40719998 5659738
0.11297617 -0.15008414 0.40649998 5725531
0.11369559 -0.14978379 0.4057 5922910
0.11421341 -0.14922503 0.40419999 5659738
0.11495211 -0.1489616 0.40349999 5922912
0.11568748 -0.1486982 0.40279999 5857119
0.11662219 -0.14869316 0.40279999 5725533
0.11711907 -0.14813443 0.40129998 5857119
0.11784425 -0.147871 0.40059999 6053728
0.11853648 -0.1475707 0.3998 5987935
0.14120652 -0.14692482 0.39839998 5659738
0.14212908 -0.14691959 0.39839998 5593945
0.14305156 -0.14691433 0.39839998 5659738
0.14397402 -0.14690909 0.39839998 5593945
0.14489642 -0.14690387 0.39839998 5593945
0.16212647 -0.14654788 0.39769998 5528152
0.16304624 -0.14654285 0.39769998 5593945
0.16425459 -0.14679578 0.39839998 5593945
0.16546614 -0.14704868 0.39909998 5593945
0.16668092 -0.14730161 0.3998 5724761
0.16760539 -0.14729661 0.3998 5658968
0.16886708 -0.14758638 0.40059999 5658968
0.16979335 -0.14758141 0.40059999 5593175
0.17071959 -0.1475765 0.40059999 5528154
0.17194577 -0.14782944 0.40129998 5528154
0.17317511 -0.14808241 0.40199998 5462361
0.17445098 -0.1483722 0.40279999 5528154
0.17568699 -0.1486252 0.40349999 5462361
0.17727637 -0.14917283 0.405 5462361
0.17852066 -0.14942582 0.4057 5396568
0.17945851 -0.14942101 0.4057 5396568
0.18106331 -0.14996864 0.40719998 5462361
0.18236218 -0.15025848 0.40799999 5528154
0.18330528 -0.15025371 0.40799999 5462361
0.18424839 -0.15024899 0.40799999 5462361
0.18550919 -0.15050206 0.40869999 5396568
0.18645386 -0.15049739 0.40869999 5396568
0.18671075 -0.14994039 0.40719998 5396568
0.18765193 -0.1499358 0.40719998 5462361
0.1885931 -0.14993122 0.40719998 5462361
0.18920846 -0.14966898 0.40649998 5462361
0.190148 -0.14966449 0.40649998 5462361
0.19108754 -0.14966004 0.40649998 5331288
0.19164918 -0.14936112 0.4057 5199702
0.19225456 -0.14909905 0.405 5199702
0.19214123 -0.14828482 0.40279999 5068886
0.19268873 -0.14798605 0.40199998 5199702
0.1929436 -0.1474665 0.40059999 5133909
0.19280483 -0.1466525 0.39839998 5133909
0.19265591 -0.1458386 0.3962 5133909
0.19008924 -0.13859446 0.3766 5199702
0.18964143 -0.13763413 0.37399998 5133909
0.18989477 -0.13718912 0.37279999 5133909
0.19075662 -0.13718575 0.37279999 5133909
0.19161846 -0.13718241 0.37279999 5068116
0.1924804 -0.13717914 0.37279999 5002323
0.19334234 -0.1371759 0.37279999 4870737
0.1942043 -0.13717271 0.37279999 4870737
0.19506627 -0.13716957 0.37279999 5068116
0.19655897 -0.13760798 0.37399998 5068116
0.19742382 -0.13760494 0.37399998 5068116
0.19897793 -0.13808022 0.37529999 5002323
-0.023519494 -0.14995497 0.40799999 5593428
-0.022606738 -0.15021452 0.40869999 5593428
-0.021695968 -0.15051077 0.4095 5593428
-0.020816885 -0.15106428 0.41099998 5659221
-0.019896941 -0.15136044 0.4118 5725014
-0.018973222 -0.15165651 0.41259998 5527635
-0.018076295 -0.15220989 0.41409999 5593428
-0.01711035 -0.15221182 0.41409999 5527635
-0.016175561 -0.15250777 0.41489998 5527635
-0.015266324 -0.15309772 0.4165 5395796
-0.014349589 -0.15368761 0.4181 5395796
-0.013422158 -0.15424071 0.41959998 5395796
-0.012493627 -0.15486726 0.42129999 5527382
-0.011532541 -0.15516295 0.42209998 5527635
-0.010567694 -0.15545855 0.42289999 5527635
-0.009599085 -0.15575409 0.42369998 5527635
-0.0086267162 -0.15604961 0.42449999 5593428
-0.007636196 -0.15605095 0.42449999 5593428
-0.006658176 -0.15634632 0.4253 5593428
-0.0056444244 -0.15575935 0.42369998 5724244
-0.0046293284 -0.15487823 0.42129999 5658451
-0.00363147 -0.15425435 0.41959998 5526865
-0.0026427903 -0.15370393 0.4181 5526865
-0.0016606945 -0.15311669 0.4165 5396049
-0.00068604917 -0.15252934 0.41489998 5527635
0.00028223259 -0.15253016 0.41489998 5527635
0.0012457068 -0.15194269 0.41329998 5396049
0.0021942395 -0.15084048 0.41029999 5527635
0.0031395359 -0.15025288 0.40869999 5330256
0.0040783756 -0.14970195 0.40719998 5330256
0.0050287484 -0.14970244 0.40719998 5330256
0.0059791305 -0.14970289 0.40719998 5396049
0.0069039939 -0.1491518 0.4057 5527635
0.097553827 -0.14730699 0.40129998 5987933
0.098854601 -0.14785308 0.40279999 5987933
0.09979067 -0.14784849 0.40279999 5790554
0.10127681 -0.14865138 0.405 5790554
0.10259641 -0.14919725 0.40649998 5856347
0.10371915 -0.14944945 0.40719998 5856347
0.10487077 -0.14973833 0.40799999 5856347
0.1060001 -0.14999042 0.40869999 5856347
0.10715876 -0.15027919 0.4095 5856347
0.10789867 -0.14998077 0.40869999 5987933
0.10884786 -0.14997591 0.40869999 5790554
0.10979695 -0.14997099 0.40869999 5987933
0.11055631 -0.14970924 0.40799999 5856347
0.11128499 -0.14941075 0.40719998 5987933
0.11203745 -0.14914897 0.40649998 5725531
0.11275882 -0.1488505 0.4057 5659738
0.11370058 -0.14884551 0.4057 5659738
0.11421841 -0.14829022 0.40419999 5725531
0.11495712 -0.1480284 0.40349999 5725533
0.1156925 -0.14776661 0.40279999 5725533
0.11662724 -0.1477616 0.40279999 5856349
0.11732841 -0.14746308 0.40199998 5987935
0.11784931 -0.14694449 0.40059999 5987935
0.11854152 -0.14664604 0.3998 5987935
0.14145987 -0.14625977 0.39909998 5725531
0.14238405 -0.14625452 0.39909998 5725531
0.14305682 -0.14599276 0.39839998 5659738
0.14397927 -0.14598751 0.39839998 5659738
0.16489071 -0.14561263 0.39769998 5593947
0.16610219 -0.14586392 0.39839998 5528154
0.16702347 -0.14585894 0.39839998 5462361
0.16823973 -0.14611024 0.39909998 5528152
0.16916253 -0.14610529 0.39909998 5462359
0.17008528 -0.14610037 0.39909998 5462359
0.17130797 -0.14635171 0.3998 5462359
0.17257689 -0.14663965 0.40059999 5462359
0.17380621 -0.146891 0.40129998 5462359
0.17538708 -0.14743517 0.40279999 5462359
0.17662464 -0.14768653 0.40349999 5396566
0.17852551 -0.1484869 0.4057 5396566
0.17946334 -0.14848207 0.4057 5462361
0.18106812 -0.1490262 0.40719998 5462361
0.18236697 -0.14931419 0.40799999 5462361
0.18331005 -0.14930941 0.40799999 5462361
0.18425311 -0.14930466 0.40799999 5462361
0.1855139 -0.1495561 0.40869999 5396568
0.18645854 -0.14955138 0.40869999 5462361
0.18671538 -0.14899786 0.40719998 5462361
0.18765651 -0.14899324 0.40719998 5462361
0.1889682 -0.14928138 0.40799999 5462361
0.18953879 -0.14898412 0.40719998 5331288
0.19047993 -0.1489796 0.40719998 5397081
0.19142109 -0.14897513 0.40719998 5200472
0.19203149 -0.14871459 0.40649998 5068886
0.19225894 -0.14816147 0.405 5200472
0.19247945 -0.14760838 0.40349999 5068886
0.19307646 -0.14734803 0.40279999 5199702
0.19328494 -0.14679509 0.40129998 5133909
0.19348653 -0.14624223 0.3998 5133909
0.19338936 -0.14546995 0.39769998 5133909
0.19357568 -0.14491723 0.3962 5133909
0.19009279 -0.13772234 0.3766 5331288
0.18964489 -0.13676801 0.37399998 5199702
0.18989819 -0.13632575 0.37279999 5133909
0.19045296 -0.13610294 0.37219998 5068116
0.1913134 -0.13609959 0.37219998 5068116
0.19217387 -0.1360963 0.37219998 5002323
0.19334553 -0.13631241 0.37279999 4870737
0.19420746 -0.13630921 0.37279999 4739151
0.19506942 -0.13630603 0.37279999 4936530
0.19624674 -0.13652231 0.3734 5002323
0.19742686 -0.13673857 0.37399998 5068116
0.19898097 -0.13721083 0.37529999 5068116
0.20022157 -0.13746375 0.37599999 5068116
-0.024473295 -0.14900935 0.40799999 5659219
-0.023562154 -0.14926735 0.40869999 5593426
-0.022653241 -0.14956181 0.4095 5593426
-0.021777643 -0.15011185 0.41099998 5593426
-0.020859547 -0.15040623 0.4118 5593426
-0.019937679 -0.15070052 0.41259998 5527633
-0.019007439 -0.15095825 0.41329998 5593426
-0.018113188 -0.15154466 0.41489998 5659219
-0.017145315 -0.15154658 0.41489998 5659219
-0.016208604 -0.15184067 0.41569999 5593426
-0.015297445 -0.15242693 0.41729999 5527635
-0.014375357 -0.15297659 0.4188 5527635
-0.013478226 -0.1538915 0.42129999 5527635
-0.01249525 -0.15389316 0.42129999 5593428
-0.011534105 -0.15418696 0.42209998 5593428
-0.010589189 -0.15477295 0.42369998 5659221
-0.0096186539 -0.15506665 0.42449999 5593428
-0.0086280955 -0.15506805 0.42449999 5527635
-0.007637511 -0.1550694 0.42449999 5658451
-0.0066594277 -0.15536292 0.4253 5658451
-0.0056562675 -0.15507191 0.42449999 5658449
-0.0046392335 -0.15419632 0.42209998 5724242
-0.0036325143 -0.15328412 0.41959998 5658449
-0.0026437673 -0.15273716 0.4181 5658449
-0.0016647958 -0.15244585 0.41729999 5526863
-0.00068689219 -0.15156996 0.41489998 5658449
0.00028145281 -0.15157075 0.41489998 5593428
0.0012449931 -0.150987 0.41329998 5527635
0.0021973359 -0.15014744 0.41099998 5527635
0.0031389543 -0.1493078 0.40869999 5396049
0.00408587 -0.14905262 0.40799999 5330256
0.0050381729 -0.14905311 0.40799999 5330256
0.0059904838 -0.14905353 0.40799999 5396049
0.0069172769 -0.1485059 0.40649998 5527635
0.096625596 -0.14638335 0.40129998 6053726
0.097728521 -0.14663416 0.40199998 5987933
0.099202767 -0.14743207 0.40419999 5987933
0.10014212 -0.1474275 0.40419999 5987933
0.10145651 -0.14796996 0.4057 5856347
0.10277779 -0.14851236 0.40719998 5856347
0.10392768 -0.14879939 0.40799999 5856347
0.10505548 -0.14904994 0.40869999 5856347
0.10600491 -0.14904514 0.40869999 5987933
0.10695425 -0.14904033 0.40869999 5987933
0.10790353 -0.14903548 0.40869999 5987933
0.1086663 -0.14877535 0.40799999 5790554
0.10961381 -0.14877047 0.40799999 5987933
0.11034445 -0.14847384 0.40719998 5987933
0.11128995 -0.14846893 0.40719998 5987933
0.11204243 -0.14820874 0.40649998 5856347
0.11276379 -0.14791211 0.4057 5856347
0.11350938 -0.14765194 0.405 5659738
0.11402558 -0.14710012 0.40349999 5659738
0.11496212 -0.14709513 0.40349999 5857117
0.11569752 -0.14683492 0.40279999 5857117
0.11663229 -0.1468299 0.40279999 5987933
0.11733346 -0.14653325 0.40199998 5856347
0.11785433 -0.14601789 0.40059999 5856347
0.14146513 -0.14533649 0.39909998 5659738
0.1423893 -0.14533123 0.39909998 5659738
0.14331344 -0.14532599 0.39909998 5659738
0.14423749 -0.14532071 0.39909998 5593945
0.16489573 -0.14469233 0.39769998 5593947
0.16610721 -0.14494199 0.39839998 5593947
0.16702843 -0.14493699 0.39839998 5528154
0.16824472 -0.14518668 0.39909998 5462361
0.16916747 -0.1451817 0.39909998 5462361
0.1700902 -0.14517677 0.39909998 5462361
0.17131287 -0.14542647 0.3998 5528154
0.17258181 -0.14571255 0.40059999 5528154
0.17381109 -0.14596227 0.40129998 5462361
0.17539197 -0.14650297 0.40279999 5462361
0.17662951 -0.14675267 0.40349999 5396568
0.17822233 -0.14729334 0.405 5396568
0.17946817 -0.14754307 0.4057 5462361
0.18076168 -0.14782917 0.40649998 5462361
0.18201417 -0.14807892 0.40719998 5396568
0.18295538 -0.14807414 0.40719998 5462361
0.18425785 -0.14836027 0.40799999 5264982
0.18520087 -0.14835556 0.40799999 5396568
0.18646324 -0.14860536 0.40869999 5396568
0.18672 -0.14805529 0.40719998 5462361
0.18766113 -0.14805065 0.40719998 5462361
0.18860224 -0.14804605 0.40719998 5396568
0.18954335 -0.14804149 0.40719998 5199702
0.19015698 -0.14778247 0.40649998 5331288
0.19109647 -0.14777799 0.40649998 5331288
0.19203594 -0.14777353 0.40649998 5199702
0.19226332 -0.14722385 0.405 5133909
0.19248374 -0.14667422 0.40349999 5068116
0.19308075 -0.14641547 0.40279999 5133909
0.19328916 -0.14586596 0.40129998 5002323
0.19349068 -0.14531656 0.3998 5068116
0.19339347 -0.14454913 0.39769998 5133909
0.19357973 -0.14399986 0.3962 5133909
0.18990164 -0.13546237 0.37279999 5002323
0.18979116 -0.13476856 0.37090001 5068116
0.19064853 -0.13476521 0.37090001 5002323
0.19150598 -0.13476188 0.37090001 5002323
0.19267456 -0.13497661 0.37149999 4936530
0.19353344 -0.13497338 0.37149999 4739151
0.19439232 -0.13497019 0.37149999 4739151
0.1959345 -0.13543934 0.37279999 4936530
0.19711319 -0.13565421 0.3734 5002323
0.19829473 -0.13586913 0.37399998 5002323
0.19985183 -0.1363384 0.37529999 5068118
0.20141493 -0.13680767 0.3766 5002325
-0.024517644 -0.14831996 0.40869999 5724242
-0.023610584 -0.14861262 0.4095 5724242
-0.022699747 -0.14890523 0.41029999 5593426
-0.021822231 -0.14945184 0.4118 5527633
-0.020902213 -0.14974433 0.41259998 5593426
-0.019973587 -0.15000048 0.41329998 5527633
-0.019046258 -0.15029289 0.41409999 5593426
-0.018150087 -0.15087558 0.41569999 5659219
-0.017180284 -0.15087752 0.41569999 5593426
-0.016241645 -0.15116975 0.4165 5527633
-0.015328567 -0.15175231 0.4181 5658449
-0.014404554 -0.1522985 0.41959998 5526863
-0.013479909 -0.15291725 0.42129999 5658449
-0.012520598 -0.15320927 0.42209998 5724242
-0.011557525 -0.15350123 0.42289999 5724242
-0.010590689 -0.15379311 0.42369998 5724242
-0.0096200909 -0.15408497 0.42449999 5658449
-0.0086294683 -0.15408638 0.42449999 5724242
-0.0076388195 -0.15408772 0.42449999 5658449
-0.0066606747 -0.1543794 0.4253 5658449
-0.0056574475 -0.1540902 0.42449999 5658449
-0.0046491376 -0.15351056 0.42289999 5658449
-0.0036552018 -0.15322122 0.42209998 5658449
-0.0026542272 -0.15231474 0.41959998 5526863
-0.0016716893 -0.15202527 0.4188 5724242
-0.00069170824 -0.15148164 0.41729999 5658449
0.00028230174 -0.15148243 0.41729999 5659221
0.0012491012 -0.15061197 0.41489998 5527635
0.002205245 -0.14977771 0.41259998 5527635
0.0031560394 -0.14919752 0.41099998 5527635
0.0041083875 -0.14894396 0.41029999 5396049
0.005056242 -0.14865403 0.4095 5330256
0.006012117 -0.14865448 0.4095 5396049
0.0069424743 -0.14811029 0.40799999 5527635
0.0078793811 -0.14782017 0.40719998 5527635
0.096798636 -0.1457088 0.40199998 5856347
0.098097742 -0.14624795 0.40349999 5856347
0.099403709 -0.14678706 0.405 5987933
0.10034496 -0.14678246 0.405 5987933
0.10166124 -0.14732142 0.40649998 5856347
0.10278251 -0.14757042 0.40719998 5790554
0.10393243 -0.14785564 0.40799999 5987933
0.10488033 -0.14785087 0.40799999 5987933
0.10582815 -0.14784609 0.40799999 5987933
0.10656653 -0.14755139 0.40719998 5987933
0.10732754 -0.14729291 0.40649998 5987933
0.10805859 -0.14699823 0.4057 5790554
0.10900076 -0.14699334 0.4057 5856347
0.10994288 -0.14698847 0.4057 5987933
0.1106936 -0.14672993 0.405 5987933
0.11141341 -0.14643519 0.40419999 5856347
0.11235184 -0.14643025 0.40419999 5856347
0.11309396 -0.14617169 0.40349999 5856347
0.11383275 -0.14591314 0.40279999 5856347
0.11453976 -0.14561838 0.40199998 5857117
0.11527167 -0.14535983 0.40129998 5857117
0.11620297 -0.14535481 0.40129998 5857117
0.11713419 -0.14534979 0.40129998 5725531
0.11785941 -0.14509122 0.40059999 5790556
0.14147039 -0.14441314 0.39909998 5790554
0.14264433 -0.14466119 0.3998 5593945
0.1433187 -0.14440261 0.39909998 5593945
0.14424276 -0.14439735 0.39909998 5528152
0.16765949 -0.14375699 0.39769998 5528154
0.168579 -0.14375202 0.39769998 5462361
0.16949847 -0.14374711 0.39769998 5593177
0.1707179 -0.14399518 0.39839998 5593177
0.17194049 -0.14424327 0.39909998 5593177
0.1731663 -0.14449137 0.3998 5527384
0.17443888 -0.14477561 0.40059999 5593177
0.17597777 -0.14527668 0.40199998 5462361
0.17756709 -0.1458139 0.40349999 5396568
0.17880948 -0.14606202 0.40419999 5396568
0.18009949 -0.14634627 0.405 5396568
0.18170609 -0.14688346 0.40649998 5462361
0.18264565 -0.14687866 0.40649998 5462361
0.18390132 -0.14712682 0.40719998 5396568
0.18484245 -0.14712206 0.40719998 5396568
0.18578357 -0.14711735 0.40719998 5462361
0.18672468 -0.14711265 0.40719998 5462361
0.18766576 -0.14710802 0.40719998 5462361
0.18791208 -0.14656152 0.4057 5396568
0.18884967 -0.14655694 0.4057 5264982
0.1894598 -0.14629954 0.405 5264982
0.19039579 -0.14629507 0.405 5199702
0.1906231 -0.14574878 0.40349999 5199702
0.19122329 -0.14549154 0.40279999 5199702
0.19143862 -0.14494541 0.40129998 5199702
0.19203046 -0.14468826 0.40059999 5199702
0.19223374 -0.14414226 0.39909998 5133909
0.19281729 -0.14388523 0.39839998 5068116
0.19305718 -0.14337547 0.39699998 5199702
0.18838419 -0.13413306 0.37149999 5068116
0.18863159 -0.1336963 0.37029999 5002323
0.18918049 -0.13347627 0.36969998 5002323
0.19003505 -0.13347287 0.36969998 5002323
0.19088966 -0.13346957 0.36969998 5002323
0.19205548 -0.13368289 0.37029999 5068116
0.19291149 -0.13367964 0.37029999 4936530
0.19376759 -0.13367644 0.37029999 4870737
0.19525437 -0.13410649 0.37149999 4936530
0.19611329 -0.13410336 0.37149999 4870737
0.19766153 -0.13456957 0.37279999 4936530
0.19916254 -0.13499969 0.37399998 4871509
0.20072265 -0.13546595 0.37529999 4805716
0.20228876 -0.13593222 0.3766 4871509
0.20315968 -0.13592932 0.3766 4739923
-0.024567997 -0.14766327 0.4095 5724242
-0.023659013 -0.14795408 0.41029999 5724242
-0.022740724 -0.14820875 0.41099998 5724244
-0.021866819 -0.14878795 0.41259998 5724244
-0.020939814 -0.14904255 0.41329998 5659221
-0.020052996 -0.14962165 0.41489998 5593428
-0.019121878 -0.14991221 0.41569999 5659221
-0.018186986 -0.15020269 0.4165 5659221
-0.017215256 -0.15020463 0.4165 5593428
-0.016305892 -0.15078352 0.4181 5527635
-0.015356021 -0.15103777 0.4188 5658451
-0.014464653 -0.15194115 0.42129999 5658451
-0.013507183 -0.15223137 0.42209998 5658451
-0.012545947 -0.15252154 0.42289999 5658451
-0.011559079 -0.15252312 0.42289999 5658451
-0.010592183 -0.15281317 0.42369998 5724244
-0.0096215233 -0.15310317 0.42449999 5724244
-0.008647101 -0.15339309 0.4253 5526865
-0.0076545221 -0.15339443 0.4253 5526865
-0.0066619157 -0.15339568 0.4253 5526865
-0.0056692865 -0.1533969 0.4253 5658451
-0.0046590399 -0.15282094 0.42369998 5658451
-0.0036631713 -0.15253347 0.42289999 5658451
-0.0026659544 -0.15195739 0.42129999 5526865
-0.0016789834 -0.15163369 0.42039999 5724244
-0.00069503515 -0.15105747 0.4188 5724244
0.00028253961 -0.15105827 0.4188 5724244
0.0012532088 -0.15022942 0.4165 5724244
0.0022168944 -0.14965297 0.41489998 5658451
0.0031677482 -0.14882398 0.41259998 5658451
0.0041228933 -0.14853597 0.4118 5526865
0.0050743129 -0.14824787 0.41099998 5461072
0.006023475 -0.1479958 0.41029999 5396049
0.0069540609 -0.14741904 0.40869999 5527635
0.0078945998 -0.14716683 0.40799999 5527635
0.0088297073 -0.1468785 0.40719998 5330256
0.0097802971 -0.14687866 0.40719998 5264463
0.096995793 -0.14506693 0.40279999 5856347
0.098272473 -0.1455666 0.40419999 5856347
0.099408306 -0.14585011 0.405 5987933
0.10034958 -0.1458455 0.405 6053726
0.10129077 -0.14584087 0.405 6053726
0.10240857 -0.14608827 0.4057 5790554
0.10355504 -0.14637162 0.40649998 5987933
0.1044995 -0.14636688 0.40649998 5987933
0.10523634 -0.14607407 0.4057 5987933
0.10599557 -0.14581725 0.405 5987933
0.10693632 -0.14581245 0.405 5856347
0.10806343 -0.14605963 0.4057 5856347
0.10900564 -0.14605477 0.4057 5856347
0.10994779 -0.14604987 0.4057 5856347
0.11069852 -0.14579298 0.405 5856347
0.11141835 -0.14550006 0.40419999 5987933
0.11235677 -0.14549513 0.40419999 5856347
0.11309891 -0.14523821 0.40349999 5856347
0.11383773 -0.14498127 0.40279999 5856347
0.11454475 -0.14468835 0.40199998 5857117
0.11527668 -0.14443141 0.40129998 6053726
0.11620799 -0.14442642 0.40129998 5856347
0.11713923 -0.14442137 0.40129998 5987933
0.11786444 -0.14416443 0.40059999 5724763
0.17226158 -0.14281189 0.39769998 5593175
0.17379056 -0.14330974 0.39909998 5593175
0.17501956 -0.14355625 0.3998 5593175
0.17660378 -0.14408998 0.40129998 5527382
0.17819497 -0.14462373 0.40279999 5396566
0.17974858 -0.14512156 0.40419999 5462359
0.18104039 -0.14540395 0.405 5462359
0.18197647 -0.14539917 0.405 5396566
0.18322864 -0.14564569 0.4057 5528152
0.18416627 -0.14564095 0.4057 5528152
0.18510391 -0.14563625 0.4057 5396568
0.18572052 -0.14538029 0.405 5396568
0.18665649 -0.14537564 0.405 5396568
0.18689767 -0.14483263 0.40349999 5264982
0.18750429 -0.1445768 0.40279999 5199702
0.18740596 -0.14378266 0.40059999 5199702
0.18833174 -0.1437782 0.40059999 5133909
0.18887955 -0.14348666 0.3998 5199702
0.18913879 -0.14297985 0.39839998 5068116
0.18939158 -0.14247309 0.39699998 5002323
0.18838771 -0.13327263 0.37149999 5068116
0.18863504 -0.13283865 0.37029999 5068116
0.18851864 -0.13215363 0.36839998 5068116
0.18937017 -0.13215026 0.36839998 4936530
0.19022174 -0.13214692 0.36839998 4936530
0.1910733 -0.13214362 0.36839998 5068116
0.19192491 -0.13214035 0.36839998 5068116
0.19277653 -0.13213716 0.36839998 4936530
0.19431147 -0.13260026 0.36969998 5002323
0.19579965 -0.13302754 0.37090001 4936530
0.19734646 -0.13349071 0.37219998 5002323
0.19852655 -0.13370284 0.37279999 4936530
0.2000303 -0.13413019 0.37399998 4936530
0.20196943 -0.13484451 0.37599999 5002323
0.20283888 -0.13484158 0.37599999 4936530
-0.02457035 -0.1467161 0.4095 5724242
-0.023701677 -0.14725584 0.41099998 5790035
-0.022787234 -0.14754474 0.4118 5658449
-0.021869007 -0.14783359 0.41259998 5724242
-0.020982482 -0.1483732 0.41409999 5659219
-0.020055074 -0.14866194 0.41489998 5593426
-0.019160701 -0.14923729 0.4165 5593426
-0.018223884 -0.14952593 0.41729999 5659219
-0.017250225 -0.14952785 0.41729999 5593426
-0.016335037 -0.15006721 0.4188 5527633
-0.015387142 -0.1503557 0.41959998 5593426
-0.014466384 -0.1509666 0.42129999 5593426
-0.013534459 -0.15154165 0.42289999 5724242
-0.012571294 -0.15182994 0.42369998 5724242
-0.011582497 -0.15183154 0.42369998 5724242
-0.010593669 -0.15183303 0.42369998 5658449
-0.0096229482 -0.15212119 0.42449999 5658449
-0.008632198 -0.15212257 0.42449999 5658449
-0.0076414202 -0.15212388 0.42449999 5658449
-0.0066506178 -0.15212515 0.42449999 5724242
-0.0056491243 -0.15183967 0.42369998 5724242
-0.0046513434 -0.15155411 0.42289999 5526863
-0.0036572758 -0.15126847 0.42209998 5658451
-0.0026612254 -0.15066023 0.42039999 5526865
-0.0016734927 -0.15008776 0.4188 5724244
-0.00069337821 -0.14955106 0.41729999 5658451
0.00028075857 -0.14955185 0.41729999 5724244
0.0012525044 -0.14926589 0.4165 5658451
0.0022162558 -0.14869314 0.41489998 5658451
0.003172549 -0.14812033 0.41329998 5658451
0.0041303928 -0.14787 0.41259998 5526865
0.005083743 -0.14758377 0.4118 5526865
0.0060333675 -0.14729747 0.41099998 5396049
0.0069928765 -0.14729781 0.41099998 5396049
0.0079233674 -0.14676052 0.4095 5527635
0.0088620372 -0.14647403 0.40869999 5396049
0.0098161921 -0.1464742 0.40869999 5330256
0.010730817 -0.1459367 0.40719998 5330256
0.011681473 -0.14593674 0.40719998 5396049
0.097000301 -0.14413495 0.40279999 5856347
0.098277025 -0.14463137 0.40419999 5987933
0.099412911 -0.14491306 0.405 5987933
0.1003542 -0.14490846 0.405 6053726
0.10129542 -0.14490381 0.405 5987933
0.10241327 -0.14514959 0.4057 5856347
0.10355978 -0.14543109 0.40649998 5987933
0.10450425 -0.14542635 0.40649998 5856347
0.10524112 -0.14513537 0.4057 5856347
0.10600038 -0.14488019 0.405 5856347
0.1067299 -0.14458922 0.40419999 5856347
0.10748226 -0.144334 0.40349999 5987933
0.10841939 -0.14432915 0.40349999 5987933
0.10916674 -0.14407393 0.40279999 5856347
0.11010209 -0.14406903 0.40279999 5987933
0.11081681 -0.14377801 0.40199998 5987933
0.11175016 -0.14377309 0.40199998 5856347
0.11248722 -0.14351782 0.40129998 5987933
0.17471795 -0.14238106 0.39909998 5593175
0.17594852 -0.14262594 0.3998 5593175
0.1775362 -0.1431562 0.40129998 5528152
0.17913081 -0.14368646 0.40279999 5396566
0.1803747 -0.14393133 0.40349999 5396566
0.18130724 -0.14392655 0.40349999 5264980
0.18255594 -0.14417148 0.40419999 5396568
0.18349008 -0.14416674 0.40419999 5462361
0.18442421 -0.14416201 0.40419999 5462361
0.18503731 -0.14390768 0.40349999 5396568
0.18564716 -0.14365339 0.40279999 5396568
0.18620744 -0.14336348 0.40199998 5396568
0.18648471 -0.14285967 0.40059999 5396568
0.18638124 -0.14207062 0.39839998 5264982
0.18730189 -0.14206618 0.39839998 5068116
0.18871659 -0.13449045 0.37729999 5199702
0.18958855 -0.13448675 0.37729999 5199702
0.18788603 -0.13266526 0.37219998 5199702
0.18712348 -0.13152112 0.36899999 5199702
0.187365 -0.13108994 0.3678 5068116
0.18821505 -0.13108648 0.3678 5068116
0.18906516 -0.13108309 0.3678 4936530
0.18991527 -0.13107972 0.3678 4936530
0.19076541 -0.13107641 0.3678 5133909
0.19192815 -0.13128695 0.36839998 5068116
0.19277973 -0.13128373 0.36839998 5002323
0.1939467 -0.13149437 0.36899999 4870737
0.19548602 -0.13195448 0.37029999 4739151
0.19697839 -0.13237897 0.37149999 4673358
0.19852959 -0.13283913 0.37279999 4739151
0.20003334 -0.13326368 0.37399998 4870737
0.20159638 -0.1337239 0.37529999 4870737
0.20246419 -0.13372096 0.37529999 4870737
0.20441562 -0.13443068 0.37729999 4608335
-0.059034672 -0.13916138 0.39129999 5856347
-0.058124349 -0.13916564 0.39129999 5856347
-0.057213943 -0.1391699 0.39129999 5856347
-0.056303449 -0.13917407 0.39129999 5856347
-0.024620701 -0.14605357 0.41029999 5790035
-0.023703974 -0.14630505 0.41099998 5790035
-0.022833744 -0.1468769 0.41259998 5724242
-0.021950703 -0.14741307 0.41409999 5724242
-0.021025147 -0.14770001 0.41489998 5790035
-0.02009582 -0.1479869 0.41569999 5855828
-0.019199524 -0.14855854 0.41729999 5593428
-0.018291356 -0.14909455 0.4188 5593428
-0.017314134 -0.14909647 0.4188 5593428
-0.016399292 -0.14966795 0.42039999 5593428
-0.015451272 -0.14999019 0.42129999 5593428
-0.014495582 -0.15027674 0.42209998 5593428
-0.013536126 -0.15056327 0.42289999 5724244
-0.012572903 -0.15084971 0.42369998 5790037
-0.011584042 -0.15085128 0.42369998 5790037
-0.01059515 -0.1508528 0.42369998 5658451
-0.0096243666 -0.15113908 0.42449999 5658451
-0.0086335531 -0.15114045 0.42449999 5724244
-0.0076427115 -0.15114178 0.42449999 5658451
-0.0066518453 -0.15114304 0.42449999 5658451
-0.0056502852 -0.15085939 0.42369998 5658451
-0.0046436368 -0.15029082 0.42209998 5526865
-0.0036513703 -0.15000704 0.42129999 5658451
-0.0026571203 -0.14940272 0.41959998 5658451
-0.0016715875 -0.14886954 0.4181 5724244
-0.0006942054 -0.14858554 0.41729999 5658451
0.00027999459 -0.14858635 0.41729999 5658451
0.0012494007 -0.14801735 0.41569999 5658451
0.0022156218 -0.14773317 0.41489998 5658451
0.0031719801 -0.14716406 0.41329998 5658451
0.0041368939 -0.14716458 0.41329998 5527635
0.0050931759 -0.14691582 0.41259998 5396049
0.0060564745 -0.14691623 0.41259998 5396049
0.0070061698 -0.1466317 0.4118 5527635
0.0079521341 -0.14634712 0.41099998 5593428
0.0088965381 -0.14609811 0.41029999 5396049
0.009854489 -0.14609826 0.41029999 5527635
0.010770278 -0.14552863 0.40869999 5396049
0.011724497 -0.14552867 0.40869999 5330256
0.012632183 -0.14499454 0.40719998 5330256
0.097004808 -0.14320287 0.40279999 5790554
0.098111376 -0.14344721 0.40349999 5856347
0.099221118 -0.14369151 0.40419999 5987933
0.10016059 -0.14368689 0.40419999 5987933
0.1009249 -0.14343344 0.40349999 5856347
0.10186258 -0.1434288 0.40349999 5856347
0.10297854 -0.14367293 0.40419999 5856347
0.10391768 -0.14366822 0.40419999 5790554
0.10467517 -0.14341469 0.40349999 5790554
0.10521995 -0.14287679 0.40199998 5790554
0.17533721 -0.14120421 0.39839998 5593175
0.17687744 -0.14169559 0.3998 5527382
0.17846854 -0.14222237 0.40129998 5527382
0.18006657 -0.14274916 0.40279999 5396566
0.18099752 -0.14274435 0.40279999 5264980
0.18224455 -0.14298762 0.40349999 5264982
0.18349484 -0.14323094 0.40419999 5199189
0.18410952 -0.14297818 0.40349999 5264982
0.18472098 -0.14272545 0.40279999 5396568
0.18528306 -0.14243735 0.40199998 5396568
0.18588778 -0.1421847 0.40129998 5396568
0.18579096 -0.14140069 0.39909998 5396568
0.18582197 -0.13405691 0.37849998 5068116
0.18669659 -0.13405302 0.37849998 5068116
0.18697655 -0.13362418 0.37729999 5068116
0.18685268 -0.13291207 0.37529999 5068116
0.1870697 -0.13244794 0.37399998 5133909
0.1870295 -0.13180682 0.37219998 5068116
0.1872334 -0.13134284 0.37090001 5133909
0.18712699 -0.13066645 0.36899999 5133909
0.18736848 -0.13023801 0.3678 5068116
0.18821849 -0.13023454 0.3678 5002323
0.18906854 -0.13023114 0.3678 5002323
0.18991862 -0.13022774 0.3678 5002323
0.19076872 -0.13022441 0.3678 5133909
0.19193141 -0.13043356 0.36839998 5068116
0.19278295 -0.1304303 0.36839998 5002323
0.19394988 -0.13063951 0.36899999 4870737
0.19548917 -0.1310966 0.37029999 4870737
0.19698147 -0.13151827 0.37149999 4870737
0.19853266 -0.13197541 0.37279999 4870737
0.20003635 -0.13239716 0.37399998 4739151
0.20159937 -0.13285436 0.37529999 4870737
0.20246711 -0.13285138 0.37529999 4870737
0.2044185 -0.13355641 0.37729999 4870737
-0.060859479 -0.13824771 0.39129999 5987933
-0.059949264 -0.13825208 0.39129999 5856347
-0.059038974 -0.13825639 0.39129999 5790554
-0.058128599 -0.13826066 0.39129999 5790554
-0.057218146 -0.13826489 0.39129999 5856347
-0.056307618 -0.13826907 0.39129999 5790554
-0.055397 -0.13827319 0.39129999 5790554
-0.026485484 -0.14481659 0.4095 5724242
-0.025530282 -0.14481901 0.4095 5790035
-0.024623044 -0.14510427 0.41029999 5790035
-0.023752404 -0.14563707 0.4118 5790035
-0.022835979 -0.14592227 0.41259998 5790035
-0.021952884 -0.14645496 0.41409999 5790035
-0.02106782 -0.14702301 0.41569999 5855828
-0.020175241 -0.14759099 0.41729999 6119000
-0.019238349 -0.14787598 0.4181 5921623
-0.018328257 -0.14840849 0.41959998 5790037
-0.017349105 -0.14841041 0.41959998 5659221
-0.016401133 -0.14869525 0.42039999 5659221
-0.015453054 -0.14901538 0.42129999 5659221
-0.014497304 -0.14930007 0.42209998 5593428
-0.013563397 -0.1498677 0.42369998 5724244
-0.012574505 -0.14986932 0.42369998 5724244
-0.011607454 -0.15015386 0.42449999 5790037
-0.010616632 -0.15015538 0.42449999 5724244
-0.0096257804 -0.15015681 0.42449999 5724244
-0.0086349025 -0.1501582 0.42449999 5724244
-0.0076439972 -0.15015951 0.42449999 5658451
-0.0066405283 -0.14987777 0.42369998 5658451
-0.0056407698 -0.14959598 0.42289999 5526865
-0.0046359207 -0.14903112 0.42129999 5526865
-0.0036445893 -0.14871377 0.42039999 5658451
-0.0026530062 -0.14814876 0.4188 5658451
-0.0016692741 -0.14761904 0.41729999 5658451
-0.00069369498 -0.14733692 0.4165 5724244
0.00027870035 -0.1473377 0.4165 5724244
0.0012463043 -0.1467724 0.41489998 5658451
0.0022107218 -0.14649007 0.41409999 5658451
0.0031714158 -0.14620765 0.41329998 5658451
0.0041363924 -0.14620818 0.41329998 5527635
0.0051013785 -0.14620866 0.41329998 5396049
0.0060560987 -0.1459614 0.41259998 5396049
0.0070194658 -0.14596175 0.41259998 5527635
0.0079828408 -0.14596203 0.41259998 5527635
0.0089115268 -0.14539623 0.41099998 5330256
0.0098711746 -0.1453964 0.41099998 5396049
0.010812378 -0.14514886 0.41029999 5527635
0.011747443 -0.14486589 0.4095 5264463
