# .PCD v0.7 - Point Cloud Data file format
VERSION 0.7
FIELDS x y z
SIZE 4 4 4
TYPE F F F
COUNT 1 1 1
WIDTH 1464
HEIGHT 1
VIEWPOINT 0 0 0 1 0 0 0
POINTS 1464
DATA ascii
-0.074000001 0.105446 0.0368912
-0.074249998 0.106157 0.036892101
-0.074500002 0.106868 0.036892999
-0.075499997 0.10829 0.036894701
-0.061000001 0.111133 0.0368983
-0.0605 0.111133 0.0368983
-0.059999999 0.111133 0.0368983
-0.052499998 0.111133 0.0368983
-0.052000001 0.111133 0.0368983
-0.0515 0.111133 0.0368983
-0.050999999 0.111133 0.0368983
-0.062249999 0.111844 0.036899202
-0.056249999 0.130399 0.036898799
-0.059500001 0.133986 0.0368926
-0.06075 0.134703 0.0368913
-0.063249998 0.137573 0.036886401
-0.088249996 0.14187799 0.036878899
-0.08625 0.144747 0.036874
-0.06075 0.144747 0.036874
-0.085500002 0.145465 0.0368728
-0.06075 0.146182 0.0368715
-0.083999999 0.1469 0.036870301
-0.082000002 0.148334 0.036867801
-0.061749998 0.14905199 0.036866602
-0.063749999 0.15048701 0.036864098
-0.074500002 0.151204 0.036862802
-0.074000001 0.151204 0.036862802
-0.061500002 0.113977 0.036901802
-0.060249999 0.114688 0.0369027
-0.058499999 0.115398 0.036903601
-0.05675 0.116109 0.036904499
-0.056000002 0.11682 0.0369053
-0.053750001 0.121796 0.036911499
-0.0535 0.122507 0.0369124
-0.054000001 0.125377 0.036907401
-0.061000001 0.145468 0.036999699
-0.084749997 0.14618599 0.036998499
-0.061000001 0.14690299 0.036997199
-0.061250001 0.14762001 0.036996
-0.061500002 0.148338 0.036994699
-0.080750003 0.149055 0.0369935
-0.062249999 0.149055 0.0369935
-0.063000001 0.149772 0.0369923
-0.077749997 0.15049 0.036991
-0.06425 0.15049 0.036991
-0.066 0.151207 0.036989801
-0.074249998 0.103322 0.037015699
-0.074000001 0.104032 0.0370166
-0.073749997 0.104743 0.037017498
-0.0735 0.105454 0.0370184
-0.073749997 0.106165 0.037019301
-0.074000001 0.106876 0.037020098
-0.074749999 0.107586 0.037021
-0.061999999 0.11114 0.0370254
-0.061500002 0.11114 0.0370254
-0.050500002 0.11114 0.0370254
-0.050000001 0.11114 0.0370254
-0.0495 0.11114 0.0370254
-0.048999999 0.11114 0.0370254
-0.048500001 0.11114 0.0370254
-0.046500001 0.11114 0.0370254
-0.045499999 0.11114 0.0370254
-0.062749997 0.111851 0.037026301
-0.0625 0.112562 0.037027098
-0.054249998 0.1261 0.0370332
-0.056000002 0.129687 0.037027001
-0.057 0.13112099 0.037024502
-0.057999998 0.13255601 0.037022099
-0.05875 0.13327301 0.037020799
-0.061999999 0.135425 0.0370171
-0.062749997 0.136143 0.037015799
-0.089500003 0.13829499 0.0370121
-0.063000001 0.13973001 0.037009601
-0.088500001 0.141164 0.037007201
-0.061500002 0.144034 0.037002198
-0.061250001 0.144751 0.037000999
-0.074249998 0.101908 0.0371412
-0.074000001 0.102619 0.037142001
-0.073749997 0.10333 0.037142899
-0.073250003 0.104751 0.037144698
-0.072999999 0.105462 0.037145499
-0.073250003 0.106172 0.037146401
-0.0735 0.106883 0.037147298
-0.071500003 0.106883 0.037147298
-0.071000002 0.106883 0.037147298
-0.07175 0.107594 0.037148099
-0.071249999 0.107594 0.037148099
-0.070749998 0.107594 0.037148099
-0.070249997 0.107594 0.037148099
-0.071000002 0.108305 0.037149001
-0.070500001 0.108305 0.037149001
-0.07 0.108305 0.037149001
-0.069499999 0.108305 0.037149001
-0.070749998 0.109015 0.037149899
-0.054749999 0.110437 0.037151601
-0.054249998 0.110437 0.037151601
-0.053750001 0.110437 0.037151601
-0.05325 0.110437 0.037151601
-0.063000001 0.111148 0.037152499
-0.0625 0.111148 0.037152499
-0.048 0.111148 0.037152499
-0.047499999 0.111148 0.037152499
-0.046999998 0.111148 0.037152499
-0.046 0.111148 0.037152499
-0.045000002 0.111148 0.037152499
-0.062249999 0.11328 0.037155099
-0.06075 0.114701 0.037156899
-0.059 0.115412 0.037157699
-0.057250001 0.116123 0.037158601
-0.055750001 0.117544 0.0371604
-0.053750001 0.123236 0.037165198
-0.055750001 0.128975 0.0371553
-0.057750002 0.131844 0.037150301
-0.059250001 0.133278 0.037147801
-0.059999999 0.133995 0.037146602
-0.061250001 0.13471299 0.037145302
-0.062749997 0.140451 0.0371354
-0.0625 0.141168 0.0371341
-0.062249999 0.141886 0.0371329
-0.061999999 0.142603 0.037131701
-0.087250002 0.14331999 0.037130401
-0.061749998 0.14331999 0.037130401
-0.061250001 0.146189 0.037125401
-0.061999999 0.148341 0.037121698
-0.062749997 0.149058 0.037120499
-0.079000004 0.149776 0.037119199
-0.063500002 0.149776 0.037119199
-0.077249996 0.150493 0.037117999
-0.064750001 0.150493 0.037117999
-0.0735 0.15121 0.037116699
-0.072999999 0.15121 0.037116699
-0.072499998 0.15121 0.037116699
-0.071999997 0.15121 0.037116699
-0.066500001 0.15121 0.037116699
-0.074500002 0.101206 0.037267499
-0.0735 0.104048 0.0372709
-0.072750002 0.10618 0.0372735
-0.072999999 0.106891 0.037274402
-0.072499998 0.106891 0.037274402
-0.071999997 0.106891 0.037274402
-0.070500001 0.106891 0.037274402
-0.07 0.106891 0.037274402
-0.074249998 0.107601 0.037275299
-0.073749997 0.107601 0.037275299
-0.072250001 0.107601 0.037275299
-0.069750004 0.107601 0.037275299
-0.075000003 0.108312 0.0372761
-0.071999997 0.108312 0.0372761
-0.071500003 0.108312 0.0372761
-0.068999998 0.108312 0.0372761
-0.070249997 0.109023 0.037276998
-0.069750004 0.109023 0.037276998
-0.061749998 0.110444 0.037278701
-0.06075 0.110444 0.037278701
-0.060249999 0.110444 0.037278701
-0.059749998 0.110444 0.037278701
-0.059250001 0.110444 0.037278701
-0.05875 0.110444 0.037278701
-0.058249999 0.110444 0.037278701
-0.057750002 0.110444 0.037278701
-0.057250001 0.110444 0.037278701
-0.05675 0.110444 0.037278701
-0.056249999 0.110444 0.037278701
-0.055750001 0.110444 0.037278701
-0.05525 0.110444 0.037278701
-0.052749999 0.110444 0.037278701
-0.052250002 0.110444 0.037278701
-0.051750001 0.110444 0.037278701
-0.063500002 0.111155 0.037279598
-0.063249998 0.111865 0.0372805
-0.063000001 0.112576 0.037281301
-0.061999999 0.113997 0.0372831
-0.059500001 0.115418 0.037284799
-0.056499999 0.11684 0.037286501
-0.054749999 0.120393 0.037290901
-0.054499999 0.121104 0.037291698
-0.054249998 0.121814 0.0372926
-0.055500001 0.128263 0.037283499
-0.05675 0.13041399 0.0372798
-0.058499999 0.132566 0.037276
-0.0605 0.134 0.0372735
-0.088749997 0.14045499 0.037262298
-0.061500002 0.145476 0.0372536
-0.061500002 0.14691 0.0372511
-0.08275 0.147627 0.0372499
-0.061749998 0.147627 0.0372499
-0.0625 0.148344 0.0372486
-0.067000002 0.15121301 0.037243702
-0.074749999 0.100503 0.037393801
-0.073250003 0.103346 0.037397198
-0.072999999 0.104056 0.0373981
-0.072750002 0.104767 0.037398901
-0.072499998 0.105477 0.037399799
-0.061749998 0.13472199 0.037399299
-0.0625 0.13543899 0.037397999
-0.089249998 0.139025 0.0373918
-0.063249998 0.139025 0.0373918
-0.0625 0.142611 0.037385602
-0.062249999 0.143328 0.037384301
-0.061999999 0.144045 0.037383098
-0.061749998 0.14476199 0.037381802
-0.061749998 0.14619599 0.037379298
-0.083499998 0.14691301 0.037378099
-0.061999999 0.14691301 0.037378099
-0.062249999 0.147631 0.037376899
-0.081500001 0.148348 0.037375599
-0.080250002 0.149065 0.0373744
-0.063249998 0.149065 0.0373744
-0.064000003 0.149782 0.037373099
-0.076750003 0.150499 0.0373719
-0.065250002 0.150499 0.0373719
-0.071500003 0.151216 0.0373706
-0.071000002 0.151216 0.0373706
-0.070500001 0.151216 0.0373706
-0.07 0.151216 0.0373706
-0.068499997 0.151216 0.0373706
-0.067500003 0.151216 0.0373706
-0.072250001 0.106188 0.0374007
-0.07175 0.106188 0.0374007
-0.071249999 0.106188 0.0374007
-0.070749998 0.106188 0.0374007
-0.070249997 0.106188 0.0374007
-0.073250003 0.107609 0.037402399
-0.072750002 0.107609 0.037402399
-0.069250003 0.107609 0.037402399
-0.072499998 0.10832 0.0374033
-0.068499997 0.10832 0.0374033
-0.071249999 0.10903 0.037404101
-0.069250003 0.10903 0.037404101
-0.068750001 0.10903 0.037404101
-0.06825 0.10903 0.037404101
-0.070500001 0.109741 0.037404999
-0.063249998 0.110451 0.0374058
-0.062749997 0.110451 0.0374058
-0.062249999 0.110451 0.0374058
-0.061250001 0.110451 0.0374058
-0.05125 0.110451 0.0374058
-0.050749999 0.110451 0.0374058
-0.064000003 0.111162 0.037406702
-0.063749999 0.111872 0.037407599
-0.061250001 0.114715 0.037411001
-0.059999999 0.115425 0.037411898
-0.057750002 0.116136 0.037412699
-0.055500001 0.118267 0.0374153
-0.05525 0.118978 0.037416201
-0.055 0.119689 0.037416998
-0.054000001 0.122531 0.0374205
-0.054000001 0.123965 0.037418
-0.054249998 0.124682 0.0374167
-0.054499999 0.12539899 0.037415501
-0.054749999 0.12611599 0.037414201
-0.055 0.12683401 0.037413001
-0.05525 0.127551 0.037411701
-0.056499999 0.129702 0.037408002
-0.057500001 0.131136 0.037405498
-0.058249999 0.131854 0.037404299
-0.059 0.132571 0.037402999
-0.076250002 0.150502 0.037498798
-0.065750003 0.150502 0.037498798
-0.069499999 0.151219 0.037497599
-0.068999998 0.151219 0.037497599
-0.068000004 0.151219 0.037497599
-0.073749997 0.101933 0.0375227
-0.0735 0.102643 0.037523501
-0.072250001 0.104775 0.037526101
-0.071999997 0.105485 0.037526999
-0.071500003 0.105485 0.037526999
-0.071000002 0.105485 0.037526999
-0.069750004 0.106196 0.0375278
-0.069499999 0.106906 0.037528701
-0.068750001 0.107617 0.037529498
-0.074500002 0.108327 0.0375304
-0.074000001 0.108327 0.0375304
-0.0735 0.108327 0.0375304
-0.072999999 0.108327 0.0375304
-0.068000004 0.108327 0.0375304
-0.072250001 0.109038 0.037531201
-0.07175 0.109038 0.037531201
-0.067749999 0.109038 0.037531201
-0.067249998 0.109038 0.037531201
-0.07 0.109748 0.037532099
-0.069499999 0.109748 0.037532099
-0.068999998 0.109748 0.037532099
-0.068499997 0.109748 0.037532099
-0.068000004 0.109748 0.037532099
-0.067500003 0.109748 0.037532099
-0.067000002 0.109748 0.037532099
-0.066500001 0.109748 0.037532099
-0.066749997 0.110458 0.037533
-0.066249996 0.110458 0.037533
-0.065750003 0.110458 0.037533
-0.065250002 0.110458 0.037533
-0.064750001 0.110458 0.037533
-0.06425 0.110458 0.037533
-0.063749999 0.110458 0.037533
-0.050250001 0.110458 0.037533
-0.04975 0.110458 0.037533
-0.065499999 0.111169 0.037533801
-0.064999998 0.111169 0.037533801
-0.064499997 0.111169 0.037533801
-0.063500002 0.11259 0.0375355
-0.062749997 0.1133 0.037536401
-0.056249999 0.117563 0.037541501
-0.059749998 0.133293 0.037528802
-0.061000001 0.13401 0.037527502
-0.089000002 0.139746 0.037517499
-0.063000001 0.14117999 0.037515
-0.062749997 0.14189801 0.0375138
-0.087499999 0.14261501 0.0375125
-0.086499996 0.144049 0.037510101
-0.085749999 0.144766 0.037508801
-0.062249999 0.144766 0.037508801
-0.061999999 0.145483 0.037507601
-0.084250003 0.1462 0.037506301
-0.062249999 0.1462 0.037506301
-0.082249999 0.147634 0.037503801
-0.063000001 0.148351 0.037502602
-0.078500003 0.149785 0.037500098
-0.064499997 0.149785 0.037500098
-0.074000001 0.10123 0.037648998
-0.072999999 0.102651 0.037650701
-0.072750002 0.103362 0.037651598
-0.072499998 0.104072 0.037652399
-0.07175 0.104782 0.037653301
-0.070500001 0.105493 0.037654102
-0.06825 0.107624 0.037656602
-0.067500003 0.108334 0.037657499
-0.074749999 0.109045 0.037658401
-0.066749997 0.109045 0.037658401
-0.071000002 0.109755 0.037659202
-0.066 0.109755 0.037659202
-0.065499999 0.109755 0.037659202
-0.064499997 0.109755 0.037659202
-0.063500002 0.109755 0.037659202
-0.063000001 0.109755 0.037659202
-0.0605 0.109755 0.037659202
-0.052000001 0.109755 0.037659202
-0.067249998 0.110466 0.0376601
-0.049249999 0.110466 0.0376601
-0.048749998 0.110466 0.0376601
-0.048250001 0.110466 0.0376601
-0.04775 0.110466 0.0376601
-0.047249999 0.110466 0.0376601
-0.046750002 0.110466 0.0376601
-0.046250001 0.110466 0.0376601
-0.04575 0.110466 0.0376601
-0.045249999 0.110466 0.0376601
-0.066 0.111176 0.037660901
-0.06425 0.111887 0.037661798
-0.061749998 0.114728 0.037665199
-0.058249999 0.116149 0.037666898
-0.057 0.116859 0.037667699
-0.056000002 0.11828 0.037669402
-0.056249999 0.128996 0.0376633
-0.057250001 0.13043 0.0376608
-0.05875 0.131864 0.0376583
-0.060249999 0.13329799 0.037655801
-0.062249999 0.13473199 0.037653301
-0.090000004 0.13544901 0.037652001
-0.063500002 0.13831601 0.037647001
-0.0625 0.144053 0.037636999
-0.085000001 0.145487 0.037634499
-0.0625 0.145487 0.037634499
-0.0625 0.14692099 0.037632
-0.062749997 0.14763699 0.0376308
-0.063749999 0.14907099 0.0376282
-0.075750001 0.150506 0.037625801
-0.07525 0.150506 0.037625801
-0.074249998 0.100528 0.0377753
-0.073250003 0.101949 0.037776999
-0.071999997 0.10408 0.037779599
-0.071249999 0.10479 0.0377804
-0.07 0.105501 0.037781298
-0.068999998 0.106921 0.0377829
-0.074249998 0.109052 0.0377855
-0.072750002 0.109052 0.0377855
-0.066249996 0.109052 0.0377855
-0.064999998 0.109763 0.037786301
-0.064000003 0.109763 0.037786301
-0.0625 0.109763 0.037786301
-0.061999999 0.109763 0.037786301
-0.061500002 0.109763 0.037786301
-0.061000001 0.109763 0.037786301
-0.059999999 0.109763 0.037786301
-0.059500001 0.109763 0.037786301
-0.059 0.109763 0.037786301
-0.058499999 0.109763 0.037786301
-0.057999998 0.109763 0.037786301
-0.057500001 0.109763 0.037786301
-0.054000001 0.109763 0.037786301
-0.0535 0.109763 0.037786301
-0.052999999 0.109763 0.037786301
-0.052499998 0.109763 0.037786301
-0.0515 0.109763 0.037786301
-0.050999999 0.109763 0.037786301
-0.06825 0.110473 0.037787199
-0.067749999 0.110473 0.037787199
-0.066500001 0.111183 0.037788
-0.065250002 0.111894 0.037788901
-0.064750001 0.111894 0.037788901
-0.0605 0.115445 0.0377931
-0.05875 0.116155 0.037793901
-0.055750001 0.118997 0.037797298
-0.055 0.121128 0.037799802
-0.056000002 0.12828401 0.037791502
-0.057999998 0.131152 0.037786499
-0.059500001 0.132585 0.037783999
-0.061500002 0.134019 0.037781499
-0.063249998 0.13617 0.0377777
-0.063249998 0.14047199 0.037770201
-0.063000001 0.14262199 0.037766501
-0.062749997 0.14333899 0.037765201
-0.062749997 0.14477301 0.037762702
-0.062749997 0.146207 0.037760202
-0.081 0.148358 0.037756499
-0.063500002 0.148358 0.037756499
-0.079750001 0.149075 0.037755199
-0.06425 0.149075 0.037755199
-0.064999998 0.149792 0.037753999
-0.066249996 0.150509 0.037752699
-0.054749999 0.121838 0.037800699
-0.054499999 0.122548 0.0378015
-0.054249998 0.123265 0.037800301
-0.063500002 0.139759 0.0378985
-0.086750001 0.143343 0.0378922
-0.063000001 0.14406 0.0378909
-0.082999997 0.146927 0.037885901
-0.063000001 0.146927 0.037885901
-0.063249998 0.147644 0.037884701
-0.064000003 0.148361 0.037883401
-0.078000002 0.149795 0.037880901
-0.065499999 0.149795 0.037880901
-0.074749999 0.15051199 0.037879702
-0.066749997 0.15051199 0.037879702
-0.0735 0.101247 0.037903398
-0.072250001 0.103378 0.037905902
-0.071500003 0.104088 0.037906699
-0.070749998 0.104798 0.0379076
-0.069250003 0.106219 0.037909199
-0.068499997 0.106929 0.0379101
-0.067749999 0.107639 0.037910901
-0.067000002 0.108349 0.037911799
-0.073749997 0.10906 0.0379126
-0.073250003 0.10906 0.0379126
-0.065750003 0.10906 0.0379126
-0.065250002 0.10906 0.0379126
-0.064750001 0.10906 0.0379126
-0.057 0.10977 0.037913401
-0.056499999 0.10977 0.037913401
-0.056000002 0.10977 0.037913401
-0.055500001 0.10977 0.037913401
-0.055 0.10977 0.037913401
-0.054499999 0.10977 0.037913401
-0.050500002 0.10977 0.037913401
-0.068750001 0.11048 0.037914298
-0.067000002 0.11119 0.037915099
-0.064000003 0.112611 0.037916798
-0.0625 0.114031 0.037918501
-0.061000001 0.115452 0.037920199
-0.057500001 0.116872 0.037921801
-0.055500001 0.119713 0.037925199
-0.05525 0.120424 0.037926
-0.054499999 0.123988 0.037926
-0.055750001 0.127572 0.037919801
-0.090999998 0.129723 0.037916001
-0.057 0.129723 0.037916001
-0.057750002 0.13044 0.037914801
-0.058499999 0.131157 0.037913501
-0.059250001 0.131873 0.037912302
-0.059999999 0.13259 0.037911002
-0.06075 0.133307 0.037909701
-0.089749999 0.13617501 0.037904698
-0.063500002 0.13689101 0.037903499
-0.073749997 0.100545 0.038029701
-0.072750002 0.101965 0.038031399
-0.072499998 0.102676 0.0380322
-0.07175 0.103386 0.038033102
-0.070249997 0.104806 0.0380347
-0.069499999 0.105516 0.038035601
-0.068750001 0.106226 0.038036399
-0.068000004 0.106937 0.0380372
-0.067249998 0.107647 0.038038101
-0.066500001 0.108357 0.038038898
-0.066 0.108357 0.038038898
-0.06425 0.109067 0.038039699
-0.063749999 0.109067 0.038039699
-0.063249998 0.109067 0.038039699
-0.062749997 0.109067 0.038039699
-0.051750001 0.109067 0.038039699
-0.05125 0.109067 0.038039699
-0.071500003 0.109777 0.038040601
-0.050000001 0.109777 0.038040601
-0.0495 0.109777 0.038040601
-0.063249998 0.113328 0.038044699
-0.059250001 0.116169 0.0380481
-0.057999998 0.116879 0.038048901
-0.05675 0.117589 0.038049702
-0.054749999 0.12471 0.038051799
-0.055 0.12542699 0.038050599
-0.05525 0.12614401 0.038049299
-0.055500001 0.12686101 0.038047999
-0.05675 0.12901101 0.0380443
-0.061999999 0.134029 0.038035501
-0.063000001 0.135462 0.038033001
-0.089500003 0.136896 0.038030501
-0.087750003 0.141913 0.038021699
-0.063249998 0.141913 0.038021699
-0.063249998 0.143347 0.038019199
-0.086000003 0.14406399 0.038017899
-0.063000001 0.14549699 0.038015399
-0.083750002 0.14621399 0.038014099
-0.063249998 0.14621399 0.038014099
-0.063500002 0.14693099 0.038012899
-0.081749998 0.14764801 0.038011599
-0.063749999 0.14764801 0.038011599
-0.07925 0.14908101 0.0380091
-0.064750001 0.14908101 0.0380091
-0.077500001 0.14979801 0.0380079
-0.074249998 0.150515 0.0380066
-0.073749997 0.150515 0.0380066
-0.067249998 0.150515 0.0380066
-0.072999999 0.101264 0.038157701
-0.071000002 0.104104 0.038160998
-0.069750004 0.104814 0.0381619
-0.068999998 0.105524 0.038162701
-0.06825 0.106234 0.038163502
-0.066749997 0.107654 0.038165201
-0.065499999 0.108364 0.038166001
-0.062249999 0.109074 0.038166799
-0.061749998 0.109074 0.038166799
-0.061250001 0.109074 0.038166799
-0.06075 0.109074 0.038166799
-0.060249999 0.109074 0.038166799
-0.059749998 0.109074 0.038166799
-0.059250001 0.109074 0.038166799
-0.052250002 0.109074 0.038166799
-0.050749999 0.109074 0.038166799
-0.048999999 0.109785 0.0381677
-0.048500001 0.109785 0.0381677
-0.048 0.109785 0.0381677
-0.069250003 0.110495 0.038168501
-0.064499997 0.112625 0.038171001
-0.061500002 0.115465 0.038174301
-0.059749998 0.116175 0.038175099
-0.058499999 0.116885 0.0381759
-0.056499999 0.118305 0.038177598
-0.056249999 0.119016 0.038178399
-0.056000002 0.119726 0.038179301
-0.057500001 0.129733 0.038169999
-0.059749998 0.131883 0.038166199
-0.061250001 0.13331699 0.038163699
-0.062749997 0.13474999 0.0381612
-0.089249998 0.13761701 0.0381562
-0.063749999 0.13761701 0.0381562
-0.088 0.141201 0.038149901
-0.063249998 0.144784 0.038143601
-0.080499999 0.148368 0.038137302
-0.066 0.149801 0.038134798
-0.073250003 0.150518 0.038133498
-0.072750002 0.150518 0.038133498
-0.067749999 0.150518 0.038133498
-0.071999997 0.102692 0.0382866
-0.071249999 0.103402 0.038287401
-0.070500001 0.104112 0.038288198
-0.067500003 0.106952 0.038291499
-0.066249996 0.107662 0.0382923
-0.064999998 0.108372 0.038293101
-0.05875 0.109082 0.038293999
-0.058249999 0.109082 0.038293999
-0.052749999 0.109082 0.038293999
-0.050250001 0.109082 0.038293999
-0.047499999 0.109792 0.0382948
-0.046999998 0.109792 0.0382948
-0.046500001 0.109792 0.0382948
-0.046 0.109792 0.0382948
-0.045499999 0.109792 0.0382948
-0.045000002 0.109792 0.0382948
-0.067500003 0.111212 0.038296402
-0.065750003 0.111922 0.038297299
-0.063000001 0.114052 0.038299698
-0.056499999 0.128305 0.038299501
-0.058249999 0.130455 0.038295802
-0.059 0.131172 0.038294502
-0.0605 0.132605 0.038291998
-0.063500002 0.135472 0.038286898
-0.088749997 0.139055 0.038280599
-0.063749999 0.139055 0.038280599
-0.063500002 0.141205 0.0382769
-0.086999997 0.142638 0.038274299
-0.063500002 0.144071 0.0382718
-0.085249998 0.144788 0.0382706
-0.0845 0.145505 0.0382693
-0.063500002 0.145505 0.0382693
-0.063749999 0.146221 0.0382681
-0.082500003 0.146938 0.0382668
-0.064499997 0.148371 0.038264301
-0.065250002 0.149088 0.038263001
-0.077 0.14980499 0.038261801
-0.072250001 0.150521 0.038260501
-0.07175 0.150521 0.038260501
-0.06825 0.150521 0.038260501
-0.062249999 0.114762 0.0383006
-0.057250001 0.117602 0.0383038
-0.055750001 0.120442 0.038307101
-0.055500001 0.121152 0.038307998
-0.05525 0.121862 0.038308799
-0.054749999 0.123289 0.0383083
-0.056249999 0.127588 0.038300801
-0.063749999 0.14479201 0.038397498
-0.064000003 0.14694101 0.038393799
-0.081249997 0.14765801 0.038392499
-0.06425 0.14765801 0.038392499
-0.066500001 0.149808 0.038388699
-0.071249999 0.15052401 0.0383875
-0.070749998 0.15052401 0.0383875
-0.070249997 0.15052401 0.0383875
-0.069750004 0.15052401 0.0383875
-0.069250003 0.15052401 0.0383875
-0.068750001 0.15052401 0.0383875
-0.073250003 0.10057 0.038411301
-0.072250001 0.10199 0.038412899
-0.071500003 0.1027 0.0384137
-0.070749998 0.10341 0.038414501
-0.07 0.10412 0.038415398
-0.069250003 0.10483 0.038416199
-0.068499997 0.10554 0.038417
-0.067749999 0.10625 0.038417801
-0.067000002 0.106959 0.038418598
-0.065750003 0.107669 0.0384195
-0.064499997 0.108379 0.038420301
-0.064000003 0.108379 0.038420301
-0.063500002 0.108379 0.038420301
-0.050999999 0.108379 0.038420301
-0.057750002 0.109089 0.038421098
-0.057250001 0.109089 0.038421098
-0.05675 0.109089 0.038421098
-0.056249999 0.109089 0.038421098
-0.05525 0.109089 0.038421098
-0.054249998 0.109089 0.038421098
-0.053750001 0.109089 0.038421098
-0.05325 0.109089 0.038421098
-0.04975 0.109089 0.038421098
-0.064999998 0.112639 0.0384252
-0.063749999 0.113349 0.038426001
-0.060249999 0.116188 0.038429301
-0.055 0.122578 0.038436599
-0.056000002 0.12687699 0.0384291
-0.057999998 0.12974399 0.038424
-0.05875 0.13045999 0.038422801
-0.060249999 0.13189299 0.0384202
-0.061000001 0.13260999 0.038419001
-0.061749998 0.13332599 0.038417701
-0.0625 0.13404299 0.038416501
-0.063749999 0.13619301 0.038412701
-0.089000002 0.13834301 0.038408902
-0.088249996 0.14049201 0.038405102
-0.063749999 0.14049201 0.038405102
-0.063500002 0.14264201 0.038401298
-0.072499998 0.101288 0.038539302
-0.066500001 0.106967 0.038545799
-0.065250002 0.107677 0.038546599
-0.063000001 0.108387 0.0385474
-0.0625 0.108387 0.0385474
-0.061999999 0.108387 0.0385474
-0.061500002 0.108387 0.0385474
-0.061000001 0.108387 0.0385474
-0.059999999 0.108387 0.0385474
-0.0515 0.108387 0.0385474
-0.050500002 0.108387 0.0385474
-0.050000001 0.108387 0.0385474
-0.055750001 0.109097 0.038548201
-0.054749999 0.109097 0.038548201
-0.049249999 0.109097 0.038548201
-0.068000004 0.111226 0.0385506
-0.066249996 0.111936 0.038551401
-0.061250001 0.116195 0.0385563
-0.06075 0.116195 0.0385563
-0.059 0.116905 0.038557101
-0.057750002 0.117615 0.038557898
-0.057 0.118325 0.0385588
-0.055 0.124017 0.038561098
-0.05525 0.124733 0.038559798
-0.055500001 0.12545 0.038558599
-0.055750001 0.126166 0.038557298
-0.057250001 0.129032 0.038552299
-0.059500001 0.131182 0.038548499
-0.063249998 0.134764 0.0385422
-0.088500001 0.13978 0.0385333
-0.063749999 0.141929 0.0385295
-0.063749999 0.143362 0.038527001
-0.064000003 0.145512 0.038523201
-0.083250001 0.146228 0.038522001
-0.079999998 0.148378 0.038518202
-0.064999998 0.148378 0.038518202
-0.078749999 0.149095 0.038516901
-0.065750003 0.149095 0.038516901
-0.076499999 0.149811 0.038515601
-0.067000002 0.149811 0.038515601
-0.072750002 0.100587 0.0386656
-0.07175 0.102006 0.038667299
-0.071000002 0.102716 0.0386681
-0.070249997 0.103426 0.038668901
-0.069499999 0.104136 0.038669702
-0.068750001 0.104845 0.038670499
-0.068000004 0.105555 0.0386713
-0.067249998 0.106265 0.038672101
-0.066 0.106975 0.038672902
-0.064750001 0.107684 0.038673699
-0.0605 0.108394 0.0386745
-0.059500001 0.108394 0.0386745
-0.052000001 0.108394 0.0386745
-0.048749998 0.109104 0.038675301
-0.048250001 0.109104 0.038675301
-0.04775 0.109104 0.038675301
-0.047249999 0.109104 0.038675301
-0.058249999 0.117621 0.038685001
-0.05675 0.119041 0.0386866
-0.057 0.12832101 0.038680501
-0.058499999 0.12975401 0.038678002
-0.059250001 0.13046999 0.038676701
-0.059999999 0.13118701 0.038675498
-0.06075 0.13190299 0.038674202
-0.061500002 0.13262001 0.038672999
-0.064000003 0.13691799 0.038665399
-0.064000003 0.14264999 0.038655199
-0.08625 0.14336599 0.038654
-0.085500002 0.14408299 0.038652699
-0.064000003 0.14408299 0.038652699
-0.083999999 0.14551599 0.0386502
-0.06425 0.14623199 0.0386489
-0.082000002 0.14694799 0.0386477
-0.064499997 0.14694799 0.0386477
-0.064750001 0.14766499 0.0386464
-0.066249996 0.14909799 0.0386439
-0.075999998 0.14981399 0.0386426
-0.071999997 0.101305 0.038793601
-0.06825 0.104853 0.038797598
-0.066749997 0.106273 0.0387992
-0.062249999 0.133341 0.038798701
-0.063000001 0.134057 0.038797401
-0.087250002 0.141937 0.038783502
-0.084749997 0.144803 0.038778398
-0.065499999 0.148385 0.038772099
-0.078249998 0.149101 0.038770799
-0.075499997 0.149817 0.038769599
-0.075000003 0.149817 0.038769599
-0.067500003 0.149817 0.038769599
-0.065499999 0.106982 0.038800102
-0.06425 0.107692 0.038800899
-0.063749999 0.107692 0.038800899
-0.063249998 0.107692 0.038800899
-0.05125 0.107692 0.038800899
-0.050749999 0.107692 0.038800899
-0.050250001 0.107692 0.038800899
-0.059 0.108402 0.0388017
-0.058499999 0.108402 0.0388017
-0.057999998 0.108402 0.0388017
-0.052499998 0.108402 0.0388017
-0.0495 0.108402 0.0388017
-0.046750002 0.109111 0.038802501
-0.046250001 0.109111 0.038802501
-0.04575 0.109111 0.038802501
-0.045249999 0.109111 0.038802501
-0.059999999 0.116918 0.0388113
-0.059500001 0.116918 0.0388113
-0.057500001 0.118337 0.038812902
-0.056499999 0.119757 0.0388145
-0.056249999 0.120466 0.038815301
-0.056000002 0.121176 0.038816102
-0.055750001 0.121886 0.038816899
-0.055500001 0.122595 0.0388177
-0.05675 0.12761 0.0388088
-0.057750002 0.129043 0.038806301
-0.059749998 0.130475 0.0388037
-0.079499997 0.148388 0.038899001
-0.077749997 0.149104 0.038897801
-0.074500002 0.149821 0.038896501
-0.068000004 0.149821 0.038896501
-0.072250001 0.100603 0.03892
-0.071249999 0.102023 0.038921598
-0.070500001 0.102732 0.038922399
-0.069750004 0.103442 0.0389232
-0.068999998 0.104152 0.038924001
-0.067500003 0.105571 0.038925599
-0.066249996 0.10628 0.0389264
-0.064999998 0.10699 0.038927201
-0.050500002 0.10699 0.038927201
-0.062749997 0.1077 0.038927998
-0.04975 0.1077 0.038927998
-0.057500001 0.108409 0.038928799
-0.057 0.108409 0.038928799
-0.056499999 0.108409 0.038928799
-0.055500001 0.108409 0.038928799
-0.0535 0.108409 0.038928799
-0.052999999 0.108409 0.038928799
-0.061999999 0.115505 0.038936701
-0.092249997 0.116215 0.038937502
-0.05875 0.117634 0.0389391
-0.057999998 0.118344 0.038939901
-0.057250001 0.119053 0.038940702
-0.05525 0.123318 0.038943399
-0.055500001 0.124034 0.038942199
-0.055750001 0.12475 0.038940899
-0.056499999 0.126899 0.038937099
-0.059 0.12976401 0.038931999
-0.0605 0.13119701 0.0389295
-0.061250001 0.13191301 0.0389282
-0.090000004 0.13406201 0.0389244
-0.089749999 0.13477799 0.0389231
-0.064000003 0.13549501 0.0389219
-0.064000003 0.141225 0.0389117
-0.06425 0.143374 0.0389079
-0.06425 0.144807 0.038905401
-0.08275 0.146239 0.038902801
-0.080750003 0.147672 0.038900301
-0.069250003 0.10345 0.0390504
-0.067749999 0.104869 0.039051902
-0.067000002 0.105578 0.039052699
-0.064499997 0.106998 0.039054301
-0.050999999 0.106998 0.039054301
-0.050000001 0.106998 0.039054301
-0.062249999 0.107707 0.039055102
-0.061749998 0.107707 0.039055102
-0.061250001 0.107707 0.039055102
-0.06075 0.107707 0.039055102
-0.060249999 0.107707 0.039055102
-0.051750001 0.107707 0.039055102
-0.056000002 0.108417 0.039055899
-0.055 0.108417 0.039055899
-0.054499999 0.108417 0.039055899
-0.054000001 0.108417 0.039055899
-0.048999999 0.108417 0.039055899
-0.048500001 0.108417 0.039055899
-0.048 0.108417 0.039055899
-0.072499998 0.109836 0.039057501
-0.071999997 0.109836 0.039057501
-0.06425 0.113383 0.039061401
-0.062749997 0.114802 0.039062999
-0.057 0.119769 0.039068501
-0.05675 0.120479 0.039069299
-0.056000002 0.12547199 0.039066602
-0.056249999 0.126188 0.039065398
-0.057500001 0.128337 0.039061502
-0.058249999 0.129053 0.039060298
-0.060249999 0.130486 0.039057702
-0.061000001 0.131202 0.039056499
-0.061999999 0.132634 0.039053898
-0.09025 0.133351 0.039052699
-0.062749997 0.133351 0.039052699
-0.063749999 0.134783 0.039050099
-0.06425 0.141945 0.039037399
-0.064499997 0.14552701 0.0390311
-0.065250002 0.14767499 0.0390273
-0.066 0.14839099 0.039026
-0.066749997 0.14910799 0.039024699
-0.074000001 0.14982399 0.0390235
-0.072999999 0.14982399 0.0390235
-0.071500003 0.10133 0.039175201
-0.070749998 0.102039 0.039175998
-0.07 0.102749 0.039176699
-0.068499997 0.104167 0.039178301
-0.066500001 0.105586 0.039179899
-0.065750003 0.106296 0.0391807
-0.050250001 0.106296 0.0391807
-0.064000003 0.107005 0.039181501
-0.0495 0.107005 0.039181501
-0.059749998 0.107715 0.039182201
-0.059250001 0.107715 0.039182201
-0.049249999 0.107715 0.039182201
-0.047499999 0.108424 0.039182998
-0.046999998 0.108424 0.039182998
-0.045000002 0.108424 0.039182998
-0.088249996 0.111971 0.039186999
-0.063500002 0.1141 0.039189301
-0.0605 0.116937 0.039192401
-0.059250001 0.117647 0.039193202
-0.058499999 0.118356 0.039193999
-0.057750002 0.119066 0.0391948
-0.056499999 0.121194 0.039197199
-0.055750001 0.123329 0.039197501
-0.057250001 0.127626 0.039189801
-0.059500001 0.129775 0.039186001
-0.061749998 0.131923 0.039182201
-0.063500002 0.13407201 0.039178401
-0.089500003 0.13550401 0.039175801
-0.064000003 0.13836899 0.039170701
-0.064000003 0.139801 0.039168201
-0.087750003 0.140517 0.039166901
-0.087499999 0.141233 0.039165702
-0.086499996 0.142666 0.039163101
-0.084250003 0.144814 0.039159302
-0.083499998 0.14553 0.039158002
-0.064750001 0.146246 0.039156798
-0.081500001 0.146962 0.039155498
-0.064999998 0.146962 0.039155498
-0.077249996 0.149111 0.039151698
-0.0735 0.149827 0.039150398
-0.071999997 0.149827 0.039150398
-0.071000002 0.149827 0.039150398
-0.069499999 0.149827 0.039150398
-0.068999998 0.149827 0.039150398
-0.068499997 0.149827 0.039150398
-0.088 0.139805 0.0392952
-0.085749999 0.14338499 0.0392888
-0.085000001 0.14410201 0.0392875
-0.064499997 0.14410201 0.0392875
-0.082249999 0.14624999 0.0392837
-0.065750003 0.147682 0.039281201
-0.079000004 0.148398 0.0392799
-0.067249998 0.149114 0.0392786
-0.072499998 0.14983 0.039277401
-0.071500003 0.14983 0.039277401
-0.070500001 0.14983 0.039277401
-0.07 0.14983 0.039277401
-0.07175 0.100628 0.0393016
-0.070249997 0.102047 0.039303102
-0.069499999 0.102757 0.039303899
-0.068750001 0.103466 0.0393047
-0.068000004 0.104175 0.039305501
-0.067249998 0.104885 0.039306302
-0.065250002 0.106303 0.039307799
-0.064750001 0.106303 0.039307799
-0.050749999 0.106303 0.039307799
-0.04975 0.106303 0.039307799
-0.063500002 0.107013 0.0393086
-0.063000001 0.107013 0.0393086
-0.0515 0.107013 0.0393086
-0.05875 0.107722 0.039309401
-0.058249999 0.107722 0.039309401
-0.057750002 0.107722 0.039309401
-0.052749999 0.107722 0.039309401
-0.052250002 0.107722 0.039309401
-0.048749998 0.107722 0.039309401
-0.046500001 0.108432 0.039310198
-0.046 0.108432 0.039310198
-0.045499999 0.108432 0.039310198
-0.091250002 0.114816 0.039317202
-0.061000001 0.116944 0.0393195
-0.056249999 0.121909 0.039324999
-0.056000002 0.122619 0.0393258
-0.05675 0.12619901 0.0393194
-0.092500001 0.12691499 0.0393181
-0.057 0.12691499 0.0393181
-0.057999998 0.12834799 0.0393156
-0.05875 0.12906399 0.0393143
-0.061500002 0.131212 0.0393105
-0.0625 0.132644 0.0393079
-0.089249998 0.136225 0.0393016
-0.071000002 0.101346 0.039429601
-0.066 0.105602 0.039434198
-0.06425 0.106311 0.039434999
-0.0625 0.10702 0.0394357
-0.061999999 0.10702 0.0394357
-0.061500002 0.10702 0.0394357
-0.061000001 0.10702 0.0394357
-0.048999999 0.10702 0.0394357
-0.057250001 0.10773 0.039436501
-0.05675 0.10773 0.039436501
-0.056249999 0.10773 0.039436501
-0.055750001 0.10773 0.039436501
-0.05525 0.10773 0.039436501
-0.054249998 0.10773 0.039436501
-0.05325 0.10773 0.039436501
-0.048250001 0.10773 0.039436501
-0.065499999 0.112695 0.039441898
-0.059749998 0.11766 0.039447401
-0.058249999 0.119078 0.039448898
-0.057500001 0.119788 0.039449699
-0.093500003 0.122625 0.039452799
-0.056000002 0.124057 0.039450198
-0.056249999 0.124773 0.039448999
-0.056499999 0.125489 0.039447699
-0.057750002 0.127637 0.039443899
-0.091499999 0.128353 0.039442599
-0.091250002 0.129069 0.039441299
-0.059999999 0.129785 0.039439999
-0.06075 0.130501 0.039438698
-0.063249998 0.13336501 0.039433699
-0.06425 0.13622899 0.039428599
-0.089000002 0.13694499 0.039427299
-0.088749997 0.137661 0.039425999
-0.06425 0.140525 0.039420899
-0.064750001 0.144821 0.039413199
-0.065499999 0.14696901 0.039409399
-0.080250002 0.14768501 0.039408099
-0.066500001 0.14840201 0.039406899
-0.076750003 0.14911801 0.039405599
-0.067749999 0.14911801 0.039405599
-0.071249999 0.100645 0.0395559
-0.069750004 0.102064 0.039557502
-0.068999998 0.102773 0.039558299
-0.06825 0.103482 0.039558999
-0.067500003 0.104191 0.0395598
-0.066749997 0.1049 0.039560601
-0.065499999 0.10561 0.039561301
-0.050500002 0.10561 0.039561301
-0.050000001 0.10561 0.039561301
-0.063749999 0.106319 0.039562099
-0.05125 0.106319 0.039562099
-0.049249999 0.106319 0.039562099
-0.0605 0.107028 0.0395629
-0.059999999 0.107028 0.0395629
-0.054749999 0.107737 0.0395636
-0.053750001 0.107737 0.0395636
-0.04775 0.107737 0.0395636
-0.047249999 0.107737 0.0395636
-0.046250001 0.107737 0.0395636
-0.04575 0.107737 0.0395636
-0.089000002 0.112702 0.039569002
-0.092749998 0.117666 0.0395744
-0.059 0.118375 0.039575201
-0.057250001 0.120503 0.039577499
-0.057 0.121212 0.0395783
-0.05675 0.121921 0.039579
-0.057500001 0.126926 0.039572101
-0.091750003 0.12764201 0.039570801
-0.058499999 0.12835801 0.039569601
-0.059250001 0.12907401 0.039568301
-0.0605 0.12978999 0.039567001
-0.061250001 0.13050599 0.039565701
-0.062249999 0.131938 0.039563201
-0.06425 0.137666 0.039553002
-0.088500001 0.138382 0.039551701
-0.088249996 0.13909701 0.039550401
-0.086750001 0.14196099 0.039545301
-0.082999997 0.145541 0.039538901
-0.064999998 0.145541 0.039538901
-0.065250002 0.146257 0.039537601
-0.078500003 0.148405 0.039533801
-0.076250002 0.149121 0.039532501
-0.06825 0.149121 0.039532501
-0.070500001 0.101363 0.039683901
-0.066249996 0.104908 0.039687701
-0.064999998 0.105617 0.039688502
-0.050999999 0.105617 0.039688502
-0.0495 0.105617 0.039688502
-0.063249998 0.106327 0.039689202
-0.059500001 0.107036 0.039689999
-0.058499999 0.107036 0.039689999
-0.052499998 0.107036 0.039689999
-0.052000001 0.107036 0.039689999
-0.048500001 0.107036 0.039689999
-0.046750002 0.107745 0.0396908
-0.045249999 0.107745 0.0396908
-0.061749998 0.116254 0.039699901
-0.090750001 0.130511 0.0396927
-0.061999999 0.131227 0.0396915
-0.063000001 0.132659 0.0396889
-0.06425 0.13480601 0.0396851
-0.06425 0.139102 0.0396774
-0.086000003 0.142681 0.039671
-0.081 0.14697599 0.0396633
-0.066249996 0.14769199 0.039662
-0.067000002 0.148408 0.0396608
-0.060249999 0.117673 0.039701499
-0.093000002 0.118382 0.039702199
-0.05875 0.119091 0.039703
-0.057999998 0.1198 0.039703701
-0.056499999 0.122636 0.0397068
-0.056249999 0.123352 0.0397055
-0.057250001 0.12621599 0.0397004
-0.064499997 0.142685 0.039797999
-0.085249998 0.143401 0.039796699
-0.064750001 0.143401 0.039796699
-0.0845 0.144117 0.039795399
-0.083750002 0.144833 0.039794099
-0.081749998 0.146264 0.039791599
-0.066 0.14698 0.039790299
-0.079750001 0.147696 0.039788999
-0.078000002 0.148412 0.039787699
-0.075750001 0.14912701 0.039786398
-0.068750001 0.14912701 0.039786398
-0.070749998 0.100662 0.0398103
-0.07 0.101371 0.039811101
-0.069250003 0.10208 0.039811801
-0.068499997 0.102789 0.039812598
-0.067749999 0.103498 0.039813399
-0.067000002 0.104207 0.0398141
-0.065750003 0.104916 0.039814901
-0.050250001 0.104916 0.039814901
-0.064499997 0.105625 0.039815601
-0.048999999 0.105625 0.039815601
-0.062749997 0.106334 0.039816398
-0.062249999 0.106334 0.039816398
-0.051750001 0.106334 0.039816398
-0.048749998 0.106334 0.039816398
-0.059 0.107043 0.039817099
-0.057999998 0.107043 0.039817099
-0.057500001 0.107043 0.039817099
-0.057 0.107043 0.039817099
-0.056499999 0.107043 0.039817099
-0.054499999 0.107043 0.039817099
-0.054000001 0.107043 0.039817099
-0.0535 0.107043 0.039817099
-0.052999999 0.107043 0.039817099
-0.048 0.107043 0.039817099
-0.059500001 0.118388 0.039829299
-0.093249999 0.119097 0.039829999
-0.093500003 0.119806 0.0398308
-0.058499999 0.119806 0.0398308
-0.057750002 0.120515 0.039831501
-0.057500001 0.121224 0.039832301
-0.056499999 0.124074 0.039831299
-0.05675 0.12479 0.039829999
-0.057 0.125506 0.039828699
-0.092 0.126937 0.039826099
-0.057999998 0.126937 0.039826099
-0.058249999 0.127653 0.039824899
-0.059749998 0.129085 0.039822299
-0.061000001 0.12980001 0.039820999
-0.090499997 0.13123199 0.039818499
-0.064000003 0.134095 0.039813299
-0.089000002 0.135527 0.039810799
-0.086999997 0.14125299 0.039800499
-0.068750001 0.102088 0.039939001
-0.066500001 0.104215 0.0399413
-0.065250002 0.104924 0.039942
-0.050749999 0.104924 0.039942
-0.04975 0.104924 0.039942
-0.049249999 0.104924 0.039942
-0.064000003 0.105633 0.039942801
-0.061749998 0.106342 0.039943501
-0.061250001 0.106342 0.039943501
-0.06075 0.106342 0.039943501
-0.060249999 0.106342 0.039943501
-0.052250002 0.106342 0.039943501
-0.048250001 0.106342 0.039943501
-0.056000002 0.107051 0.039944299
-0.055500001 0.107051 0.039944299
-0.055 0.107051 0.039944299
-0.047499999 0.107051 0.039944299
-0.046999998 0.107051 0.039944299
-0.089749999 0.113432 0.039951
-0.092500001 0.116976 0.0399548
-0.093500003 0.12123 0.0399593
-0.057250001 0.121939 0.039960101
-0.057 0.122648 0.039960802
-0.093249999 0.123364 0.039959501
-0.05675 0.123364 0.039959501
-0.093000002 0.12408 0.039958298
-0.057750002 0.12622701 0.039954402
-0.059 0.128374 0.039950602
-0.060249999 0.12909 0.039949302
-0.061749998 0.130521 0.039946701
-0.062749997 0.131953 0.039944101
-0.063749999 0.133384 0.039941601
-0.064499997 0.139826 0.039930101
-0.064499997 0.141258 0.039927501
-0.064999998 0.14411999 0.039922301
-0.082500003 0.14555199 0.039919801
-0.065750003 0.146268 0.039918501
-0.080499999 0.146983 0.039917201
-0.066749997 0.147699 0.039915901
-0.077500001 0.148415 0.039914701
-0.067500003 0.148415 0.039914701
-0.07525 0.149131 0.039913401
-0.074749999 0.149131 0.039913401
-0.069250003 0.149131 0.039913401
-0.070249997 0.100679 0.0400647
-0.069499999 0.101387 0.0400654
-0.068000004 0.102805 0.040066902
-0.067249998 0.103514 0.040067699
-0.064750001 0.104932 0.0400692
-0.048749998 0.104932 0.0400692
-0.063500002 0.105641 0.0400699
-0.063000001 0.105641 0.0400699
-0.052000001 0.105641 0.0400699
-0.0515 0.105641 0.0400699
-0.048500001 0.105641 0.0400699
-0.059749998 0.10635 0.040070701
-0.059250001 0.10635 0.040070701
-0.053750001 0.10635 0.040070701
-0.05325 0.10635 0.040070701
-0.052749999 0.10635 0.040070701
-0.04775 0.10635 0.040070701
-0.046500001 0.107059 0.040071402
-0.046 0.107059 0.040071402
-0.045499999 0.107059 0.040071402
-0.045000002 0.107059 0.040071402
-0.064750001 0.113439 0.0400781
-0.061500002 0.116983 0.0400819
-0.06075 0.117692 0.0400826
-0.059999999 0.118401 0.040083401
-0.059250001 0.11911 0.040084101
-0.093000002 0.119819 0.040084898
-0.058249999 0.120527 0.040085599
-0.057999998 0.121236 0.0400864
-0.057 0.124085 0.040085301
-0.057250001 0.124801 0.040084001
-0.057500001 0.125517 0.040082701
-0.058499999 0.126948 0.040080201
-0.05875 0.127664 0.040078901
-0.0625 0.13124201 0.0400724
-0.063500002 0.13267399 0.0400699
-0.064499997 0.135536 0.0400647
-0.088749997 0.136252 0.0400634
-0.064499997 0.136968 0.0400622
-0.087250002 0.14054599 0.0400557
-0.08625 0.141977 0.0400532
-0.083250001 0.14484 0.040047999
-0.065250002 0.14484 0.040047999
-0.065499999 0.145556 0.0400468
-0.07925 0.14770301 0.0400429
-0.068000004 0.14841799 0.040041599
-0.074249998 0.149134 0.040040299
-0.073749997 0.149134 0.040040299
-0.072750002 0.149134 0.040040299
-0.072250001 0.149134 0.040040299
-0.07175 0.149134 0.040040299
-0.070749998 0.149134 0.040040299
-0.070249997 0.149134 0.040040299
-0.069750004 0.149134 0.040040299
-0.069750004 0.100687 0.0401919
-0.068999998 0.101396 0.0401926
-0.06825 0.102104 0.040193401
-0.066749997 0.103522 0.040194798
-0.066 0.104231 0.040195599
-0.050000001 0.104231 0.040195599
-0.0495 0.104231 0.040195599
-0.06425 0.10494 0.0401963
-0.05125 0.10494 0.0401963
-0.0625 0.105649 0.0401971
-0.061999999 0.105649 0.0401971
-0.052999999 0.105649 0.0401971
-0.052499998 0.105649 0.0401971
-0.05875 0.106357 0.040197801
-0.058249999 0.106357 0.040197801
-0.054749999 0.106357 0.040197801
-0.054249998 0.106357 0.040197801
-0.047249999 0.106357 0.040197801
-0.09025 0.131963 0.040198199
-0.089749999 0.133394 0.040195599
-0.089500003 0.13411 0.040194299
-0.089249998 0.13482501 0.040192999
-0.064499997 0.138403 0.040186599
-0.064750001 0.14198101 0.040180098
-0.084749997 0.14341199 0.040177599
-0.066500001 0.14699 0.040171102
-0.067249998 0.147706 0.040169898
-0.077 0.148422 0.040168598
-0.073250003 0.14913701 0.040167298
-0.071249999 0.14913701 0.040167298
-0.069750004 0.11061 0.040202301
-0.0625 0.115572 0.040207502
-0.092749998 0.119116 0.040211201
-0.059 0.119825 0.040211901
-0.093249999 0.120534 0.040212698
-0.057750002 0.121951 0.040214099
-0.057250001 0.123376 0.0402136
-0.057999998 0.125522 0.040209699
-0.058249999 0.126238 0.040208399
-0.059500001 0.12838501 0.040204599
-0.06075 0.12909999 0.040203299
-0.061500002 0.129816 0.040201999
-0.062249999 0.130532 0.040200699
-0.081249997 0.14627799 0.040299401
-0.078749999 0.147709 0.0402968
-0.068499997 0.148425 0.0402955
-0.067500003 0.102821 0.040321302
-0.065499999 0.104239 0.040322799
-0.050500002 0.104239 0.040322799
-0.048999999 0.104239 0.040322799
-0.063749999 0.104948 0.0403235
-0.051750001 0.104948 0.0403235
-0.048250001 0.104948 0.0403235
-0.061500002 0.105656 0.0403242
-0.061000001 0.105656 0.0403242
-0.0605 0.105656 0.0403242
-0.0535 0.105656 0.0403242
-0.048 0.105656 0.0403242
-0.057750002 0.106365 0.040325001
-0.057250001 0.106365 0.040325001
-0.05675 0.106365 0.040325001
-0.056249999 0.106365 0.040325001
-0.055750001 0.106365 0.040325001
-0.05525 0.106365 0.040325001
-0.046750002 0.106365 0.040325001
-0.05875 0.12054 0.040339701
-0.057500001 0.122666 0.040341899
-0.057500001 0.124097 0.040339299
-0.057750002 0.124812 0.040337998
-0.05875 0.12624399 0.040335499
-0.059 0.126959 0.040334199
-0.059250001 0.127675 0.040332898
-0.059999999 0.12839 0.040331598
-0.063249998 0.13196801 0.040325198
-0.090000004 0.13268299 0.040323898
-0.064499997 0.134114 0.040321302
-0.088500001 0.136976 0.040316101
-0.064750001 0.140554 0.040309701
-0.085500002 0.142701 0.040305801
-0.064999998 0.142701 0.040305801
-0.083999999 0.144132 0.040303301
-0.069250003 0.100704 0.040446199
-0.068499997 0.101412 0.040447
-0.067749999 0.102121 0.040447701
-0.067000002 0.10283 0.040448401
-0.066249996 0.103538 0.040449198
-0.064999998 0.104247 0.040449899
-0.0515 0.104247 0.040449899
-0.050999999 0.104247 0.040449899
-0.048500001 0.104247 0.040449899
-0.063249998 0.104955 0.040450599
-0.05325 0.104955 0.040450599
-0.052749999 0.104955 0.040450599
-0.052250002 0.104955 0.040450599
-0.059999999 0.105664 0.0404514
-0.059500001 0.105664 0.0404514
-0.054000001 0.105664 0.0404514
-0.047499999 0.105664 0.0404514
-0.046250001 0.106373 0.0404521
-0.04575 0.106373 0.0404521
-0.045249999 0.106373 0.0404521
-0.090499997 0.114168 0.040460099
-0.063249998 0.114877 0.040460899
-0.0605 0.11842 0.040464502
-0.059749998 0.119128 0.040465299
-0.058499999 0.121254 0.0404674
-0.093249999 0.121963 0.040468201
-0.058249999 0.121963 0.040468201
-0.057999998 0.122672 0.040468901
-0.057750002 0.123387 0.040467601
-0.058499999 0.125534 0.040463801
-0.092249997 0.126249 0.040462501
-0.059749998 0.12768 0.040459901
-0.090750001 0.12911101 0.040457301
-0.061250001 0.12911101 0.040457301
-0.061999999 0.12982599 0.040456001
-0.06425 0.133404 0.040449601
-0.087750003 0.139127 0.0404392
-0.064750001 0.139127 0.0404392
-0.087499999 0.139843 0.040438
-0.065250002 0.14342 0.040431499
-0.082000002 0.145567 0.040427599
-0.066249996 0.146282 0.0404264
-0.079999998 0.146997 0.040425099
-0.067749999 0.14771301 0.040423799
-0.076499999 0.14842799 0.040422499
-0.068999998 0.14842799 0.040422499
-0.068750001 0.100712 0.0405734
-0.068000004 0.10142 0.0405742
-0.065750003 0.103546 0.040576302
-0.04975 0.103546 0.040576302
-0.049249999 0.103546 0.040576302
-0.048749998 0.103546 0.040576302
-0.064499997 0.104255 0.040577099
-0.052000001 0.104255 0.040577099
-0.048 0.104255 0.040577099
-0.062749997 0.104963 0.040577799
-0.062249999 0.104963 0.040577799
-0.04775 0.104963 0.040577799
-0.059 0.105672 0.040578499
-0.058499999 0.105672 0.040578499
-0.055 0.105672 0.040578499
-0.054499999 0.105672 0.040578499
-0.046999998 0.105672 0.040578499
-0.091499999 0.115592 0.040588699
-0.061250001 0.117718 0.0405908
-0.059500001 0.119843 0.040592998
-0.059250001 0.120552 0.040593799
-0.059 0.12126 0.0405945
-0.057999998 0.124108 0.0405933
-0.058249999 0.124824 0.0405921
-0.092500001 0.125539 0.0405908
-0.059500001 0.12696999 0.0405882
-0.090999998 0.128401 0.0405856
-0.0605 0.128401 0.0405856
-0.063000001 0.131262 0.040580399
-0.064750001 0.134839 0.040573999
-0.064750001 0.13627 0.040571399
-0.088249996 0.137701 0.040568799
-0.064750001 0.137701 0.040568799
-0.088 0.13841601 0.040567499
-0.086499996 0.141278 0.040562298
-0.065499999 0.14413901 0.040557198
-0.08275 0.14485499 0.040555902
-0.066 0.14557 0.040554602
-0.080750003 0.146286 0.040553302
-0.067000002 0.147001 0.040552001
-0.078249998 0.147716 0.040550701
-0.075999998 0.148432 0.040549401
-0.069499999 0.148432 0.040549401
-0.069499999 0.100012 0.040699899
-0.064999998 0.139851 0.040691901
-0.064999998 0.14128201 0.040689301
-0.085749999 0.14199699 0.040688001
-0.083499998 0.144143 0.0406841
-0.065750003 0.144858 0.040682901
-0.06825 0.14771999 0.0406777
-0.075499997 0.148435 0.0406764
-0.07 0.148435 0.0406764
-0.06825 0.10072 0.0407006
-0.067249998 0.102137 0.040702101
-0.066500001 0.102846 0.040702801
-0.065250002 0.103554 0.040703502
-0.050250001 0.103554 0.040703502
-0.048250001 0.103554 0.040703502
-0.064000003 0.104263 0.040704198
-0.052999999 0.104263 0.040704198
-0.052499998 0.104263 0.040704198
-0.061749998 0.104971 0.040704999
-0.061250001 0.104971 0.040704999
-0.06075 0.104971 0.040704999
-0.053750001 0.104971 0.040704999
-0.047249999 0.104971 0.040704999
-0.057999998 0.10568 0.040705699
-0.057500001 0.10568 0.040705699
-0.056000002 0.10568 0.040705699
-0.055500001 0.10568 0.040705699
-0.046500001 0.10568 0.040705699
-0.046 0.10568 0.040705699
-0.087750003 0.112056 0.0407122
-0.066749997 0.112056 0.0407122
-0.062249999 0.116307 0.040716499
-0.060249999 0.119141 0.040719401
-0.093000002 0.121266 0.040721498
-0.05875 0.121975 0.040722199
-0.058249999 0.123399 0.0407217
-0.092749998 0.124829 0.040719099
-0.059 0.125545 0.040717799
-0.059250001 0.12626 0.040716499
-0.060249999 0.127691 0.040713899
-0.090499997 0.12983701 0.040709998
-0.062749997 0.13055199 0.040708698
-0.064000003 0.132698 0.040704899
-0.068999998 0.10002 0.040827099
-0.067500003 0.101437 0.0408285
-0.064750001 0.103562 0.040830702
-0.052250002 0.103562 0.040830702
-0.051750001 0.103562 0.040830702
-0.05125 0.103562 0.040830702
-0.050749999 0.103562 0.040830702
-0.063500002 0.104271 0.040831398
-0.063000001 0.104271 0.040831398
-0.0535 0.104271 0.040831398
-0.047499999 0.104271 0.040831398
-0.060249999 0.104979 0.040832099
-0.054249998 0.104979 0.040832099
-0.057 0.105687 0.040832799
-0.056499999 0.105687 0.040832799
-0.045499999 0.105687 0.040832799
-0.045000002 0.105687 0.040832799
-0.061000001 0.118439 0.0408457
-0.059999999 0.119856 0.0408471
-0.058499999 0.122689 0.040849999
-0.058499999 0.12412 0.040847398
-0.05875 0.124835 0.040846098
-0.059749998 0.126266 0.040843502
-0.059999999 0.12698101 0.040842202
-0.061000001 0.128411 0.040839601
-0.061749998 0.129127 0.040838301
-0.0625 0.129842 0.040837001
-0.063749999 0.131988 0.040833101
-0.064999998 0.13842499 0.0408215
-0.086750001 0.140571 0.0408176
-0.065250002 0.142001 0.040814999
-0.085000001 0.14271601 0.040813699
-0.065499999 0.14271601 0.040813699
-0.084250003 0.14343201 0.040812399
-0.066749997 0.146293 0.040807199
-0.079499997 0.147008 0.040805899
-0.077749997 0.147723 0.040804598
-0.075000003 0.14843801 0.040803298
-0.071000002 0.14843801 0.040803298
