# .PCD v0.7 - Point Cloud Data file format
VERSION 0.7
FIELDS x y z
SIZE 4 4 4
TYPE F F F
COUNT 1 1 1
WIDTH 959
HEIGHT 1
VIEWPOINT 0 0 0 1 0 0 0
POINTS 959
DATA ascii
0.15727927 -0.29770219 0.098817676
0.1568213 -0.29734796 0.099334836
0.15565187 -0.29724592 0.10095987
0.15507229 -0.29693577 0.10299399
0.17600885 -0.28943598 0.099674352
0.16465348 -0.30161816 0.09227398
0.16347137 -0.30111033 0.093828306
0.16211344 -0.30041978 0.094468832
0.16134298 -0.30003923 0.096356466
0.16056152 -0.29951057 0.098658934
0.16073319 -0.29912838 0.10094015
0.15908346 -0.29895836 0.099052176
0.1589362 -0.29858521 0.10138947
0.15922673 -0.29803497 0.1035805
0.15693963 -0.29784 0.10192834
0.1570017 -0.29757941 0.10360616
0.17843388 -0.29185796 0.097814783
0.17711499 -0.29048756 0.098838091
0.17719224 -0.29232022 0.099030152
0.17626563 -0.29159752 0.099940807
0.17465444 -0.29296428 0.10137464
0.16915968 -0.29553512 0.10281079
0.16676779 -0.30240205 0.091834292
0.16658138 -0.30242556 0.093966991
0.16740751 -0.29635164 0.10315391
0.16498178 -0.30173352 0.094397403
0.16465069 -0.301283 0.096675217
0.16456433 -0.30052179 0.099218711
0.16466235 -0.29908672 0.10194708
0.16498765 -0.29763204 0.10344408
0.16295311 -0.30058455 0.097162038
0.1626316 -0.30004841 0.099295139
0.16236736 -0.29909679 0.10172378
0.16220222 -0.29797134 0.10359188
0.17942901 -0.29448485 0.09739317
0.17895916 -0.29358232 0.097655639
0.1773379 -0.29438639 0.099068373
0.17622367 -0.29318768 0.10010833
0.1754642 -0.29577285 0.10036747
0.17475677 -0.29430184 0.10106915
0.17335071 -0.29707772 0.10119953
0.17280667 -0.29542464 0.10207341
0.17005977 -0.30347407 0.093345478
0.17052658 -0.29993647 0.10015577
0.1708938 -0.29832694 0.10136044
0.1706492 -0.29632261 0.10249566
0.16867872 -0.30333731 0.093122184
0.1681536 -0.30286136 0.094968051
0.16794153 -0.3020114 0.097312257
0.16870397 -0.30070424 0.099694513
0.1681086 -0.29901102 0.10159406
0.16758445 -0.29762325 0.10275169
0.16603477 -0.30151802 0.097412318
0.1663463 -0.30063719 0.099625543
0.16583052 -0.29933965 0.10160336
0.18479742 -0.29510701 0.097752362
0.18481405 -0.29415172 0.097922534
0.18320028 -0.29533044 0.097592697
0.18313313 -0.29454434 0.097932704
0.1807932 -0.29652107 0.097895198
0.17866771 -0.2975527 0.098490804
0.17772187 -0.29622704 0.098832026
0.17642966 -0.29898876 0.099247769
0.17596252 -0.29731813 0.099830844
0.17397115 -0.30175292 0.098413959
0.17425309 -0.30018631 0.099318504
0.17372061 -0.29828846 0.10045522
0.1715142 -0.30386406 0.095748842
0.17197604 -0.30262735 0.097732037
0.17179759 -0.30062348 0.099326797
0.17212908 -0.29893279 0.10063477
0.16978309 -0.30335197 0.095584393
0.16987306 -0.30249318 0.097397983
0.16979323 -0.30149308 0.098841265
0.21611683 -0.30075935 0.057137139
0.21484461 -0.30110672 0.057915024
0.18858692 -0.29452869 0.099006206
0.18677643 -0.29498881 0.098550156
0.18397981 -0.29817349 0.098656774
0.18173669 -0.29877767 0.097995237
0.17975138 -0.29986805 0.098480418
0.17751129 -0.30099341 0.098985828
0.17495263 -0.30250308 0.098269723
0.17560259 -0.30145073 0.098816827
0.17358202 -0.30332941 0.09730342
0.2213292 -0.3015185 0.055699043
0.21993698 -0.30165014 0.056352369
0.21865833 -0.30134162 0.056607291
0.21742693 -0.30243668 0.058394209
0.21360068 -0.30453226 0.059892781
0.20979148 -0.30881998 0.056594782
0.20996478 -0.30936453 0.056331821
0.19458872 -0.29292083 0.101109
0.19135064 -0.29376221 0.099862695
0.19298089 -0.29422134 0.10056077
0.1902629 -0.29603881 0.099589393
0.18773769 -0.2982488 0.099181369
0.1883108 -0.29665631 0.09893553
0.18580914 -0.29975396 0.099136248
0.18392092 -0.30174035 0.098406702
0.18370995 -0.30075997 0.098706722
0.18265896 -0.30236933 0.098769844
0.18162216 -0.30250844 0.099283181
0.17861867 -0.30457267 0.099897601
0.17988014 -0.30369383 0.099967562
0.17718527 -0.30445987 0.099399485
0.22302824 -0.30266279 0.056792699
0.22172391 -0.30259913 0.057044648
0.22071135 -0.30326355 0.058294252
0.21836495 -0.30317789 0.059255168
0.21570508 -0.30389771 0.060186245
0.21633565 -0.30507892 0.061796106
0.21438017 -0.30469635 0.060564853
0.21511364 -0.30499429 0.061891578
0.20919769 -0.31106022 0.056733496
0.20708016 -0.31271049 0.056675903
0.20821927 -0.31239569 0.056927152
0.19972928 -0.29302737 0.10174785
0.19738811 -0.31857497 0.061072119
0.19594996 -0.29442388 0.10180356
0.19544038 -0.31904382 0.062208846
0.19328591 -0.31835246 0.06354174
0.19336969 -0.2962738 0.10080758
0.19211391 -0.31954601 0.064288571
0.19120729 -0.29923791 0.099920847
0.19185819 -0.2978864 0.10022307
0.18884528 -0.32119638 0.064606324
0.18947536 -0.32075733 0.064641513
0.18933779 -0.29989263 0.099649325
0.18742093 -0.32247353 0.064766318
0.18677536 -0.30234748 0.098757222
0.18717535 -0.30135146 0.099240646
0.18538103 -0.32323557 0.065061957
0.18485276 -0.30178514 0.098721221
0.18268059 -0.3044509 0.099827297
0.18112971 -0.30376786 0.099865958
0.18043329 -0.32539186 0.06746161
0.18020585 -0.30590454 0.10037787
0.17878802 -0.32525137 0.069256872
0.17787391 -0.32492578 0.072532982
0.22390279 -0.30399269 0.058570884
0.22195733 -0.30447772 0.059820034
0.21955445 -0.30431542 0.060705774
0.21939996 -0.30468681 0.061858393
0.21752988 -0.30524611 0.062366888
0.21628791 -0.30663785 0.063706517
0.20611046 -0.3175163 0.058728836
0.20373569 -0.31838143 0.059083998
0.20165521 -0.31825584 0.059155829
0.2016739 -0.29427823 0.10232568
0.19973354 -0.3188895 0.060099028
0.19921821 -0.31975389 0.061319776
0.19926114 -0.29510346 0.10227291
0.19675384 -0.31948769 0.06227266
0.19707718 -0.29776031 0.10217102
0.1977182 -0.29664281 0.10239184
0.19573703 -0.31928039 0.062922776
0.19511664 -0.29871136 0.10152416
0.19597459 -0.29716963 0.10211864
0.19205064 -0.32084942 0.065502986
0.19231334 -0.30137676 0.10021752
0.19333924 -0.29947919 0.10056531
0.19034308 -0.32162321 0.065776497
0.18980388 -0.30324867 0.099277526
0.19042903 -0.30234078 0.099727631
0.18772149 -0.32277057 0.065370843
0.18875539 -0.32225811 0.065508001
0.18887541 -0.30320203 0.09896192
0.18881536 -0.30285504 0.099338934
0.1861288 -0.30611601 0.10024017
0.18246208 -0.32564458 0.066885822
0.18409979 -0.30673552 0.10035247
0.18171194 -0.32563975 0.067171693
0.18169853 -0.32679501 0.068921238
0.18212481 -0.3077687 0.1011655
0.17993797 -0.32611704 0.06994912
0.17962499 -0.32642117 0.071808666
0.18034986 -0.30972868 0.10186405
0.17751473 -0.32477388 0.075259887
0.17728731 -0.32444668 0.077260107
0.1766412 -0.32345361 0.082652695
0.22507001 -0.30541238 0.060833924
0.22528684 -0.30605417 0.062214822
0.22346848 -0.30553979 0.061148062
0.22356936 -0.30630752 0.062592022
0.22145259 -0.30670041 0.063778698
0.2189018 -0.30727446 0.064861342
0.21703273 -0.30766794 0.064878576
0.207542 -0.31774282 0.059494741
0.20727928 -0.29472217 0.10272633
0.20547068 -0.3188166 0.05985073
0.20602509 -0.31959718 0.061084934
0.20541875 -0.29505295 0.10230789
0.20311728 -0.31959587 0.060564585
0.2041437 -0.32053456 0.061626144
0.20328346 -0.2959705 0.10243669
0.20071718 -0.32075369 0.062185667
0.20060563 -0.29891962 0.102696
0.20095074 -0.29735687 0.10256355
0.19873022 -0.32114682 0.063278668
0.19849582 -0.29926002 0.10229456
0.19793138 -0.32263193 0.065435141
0.1958454 -0.32139492 0.065875649
0.19578293 -0.30238143 0.10166359
0.19683439 -0.3006607 0.10198979
0.19425005 -0.30305314 0.10089669
0.19180992 -0.3052921 0.10016863
0.19276556 -0.30380648 0.10017693
0.1893205 -0.30726883 0.10073256
0.18777815 -0.32752061 0.068065166
0.18715087 -0.3276248 0.068606429
0.18741441 -0.30725387 0.10029091
0.18525191 -0.32738462 0.068082884
0.18512863 -0.32796952 0.069274567
0.18455993 -0.30904317 0.10084283
0.18294312 -0.32786179 0.070511416
0.18257892 -0.32814735 0.072083578
0.18293931 -0.31003472 0.10175207
0.18116088 -0.32733005 0.071323045
0.18121216 -0.32776019 0.073411673
0.17999965 -0.32725173 0.075665675
0.18006958 -0.3126477 0.10181732
0.18070552 -0.31125921 0.10202605
0.17907152 -0.32635742 0.078194872
0.17833531 -0.32563508 0.081025414
0.17787731 -0.32476684 0.082617022
0.17762122 -0.32399461 0.085274443
0.17768207 -0.32284108 0.0874952
0.17762122 -0.3212446 0.090037577
0.17774378 -0.31968713 0.093179815
0.17739163 -0.31825835 0.09437564
0.1783096 -0.3166534 0.097490489
0.17909791 -0.31375608 0.10086951
0.17784584 -0.32384771 0.086344332
0.17786641 -0.3233797 0.087228827
0.22628433 -0.30666456 0.0635776
0.22462833 -0.30712342 0.064477608
0.22269323 -0.30751595 0.065336116
0.22245589 -0.3080864 0.067058429
0.21986917 -0.30790651 0.066171035
0.22006184 -0.30840558 0.067547239
0.21948674 -0.30913216 0.068899363
0.20886278 -0.29719165 0.10145779
0.20898372 -0.29588425 0.10231952
0.20557331 -0.32007793 0.0616512
0.2068446 -0.2977989 0.10200084
0.20647462 -0.29653898 0.10197105
0.2043114 -0.32167029 0.062982947
0.20454286 -0.29886085 0.10257547
0.20416909 -0.29761291 0.10247079
0.20232913 -0.32257763 0.064249076
0.20225444 -0.29980841 0.10277613
0.20025063 -0.32296032 0.065253571
0.19909227 -0.32307047 0.065977015
0.19962561 -0.3031967 0.10242295
0.20021656 -0.30129763 0.10264619
0.1979147 -0.32296214 0.066347472
0.19759309 -0.3037951 0.10193449
0.19834724 -0.30231288 0.10220136
0.1952731 -0.30648464 0.10085714
0.19573271 -0.30502012 0.10122403
0.1922605 -0.32610124 0.068881527
0.19348688 -0.30744526 0.1005746
0.18933359 -0.32729653 0.068128243
0.19123569 -0.32703838 0.069169983
0.19106743 -0.30869755 0.10069141
0.18892989 -0.32815206 0.069552347
0.18893874 -0.30984026 0.10096623
0.18623215 -0.32891881 0.071172193
0.18589421 -0.31215465 0.10138831
0.18659432 -0.31151325 0.10154724
0.18406555 -0.3287358 0.071990289
0.18419161 -0.32926938 0.073473692
0.1845309 -0.31296027 0.10178129
0.18382806 -0.31182516 0.10191975
0.18298495 -0.32910138 0.074943781
0.18175192 -0.32855535 0.076649241
0.18098405 -0.3279697 0.078620531
0.18208525 -0.31439421 0.10228954
0.18205902 -0.31264266 0.10231958
0.18023558 -0.3274639 0.079771876
0.18005213 -0.3271248 0.081693061
0.17968294 -0.32622999 0.084399976
0.17943531 -0.32517615 0.086822614
0.17971653 -0.32136941 0.094439775
0.17925784 -0.31952175 0.095971093
0.17898263 -0.31833816 0.097019792
0.17988411 -0.31683475 0.099904567
0.18032734 -0.31510842 0.10150597
0.17818749 -0.32301056 0.089036442
0.17835616 -0.32208776 0.091246068
0.1781877 -0.32069796 0.093041748
0.22736096 -0.30722815 0.06534636
0.22816427 -0.30751625 0.066811733
0.22602347 -0.30753094 0.065857969
0.226089 -0.3079766 0.067620918
0.2258054 -0.3085146 0.069697537
0.2237654 -0.30845261 0.068507031
0.22398916 -0.3089563 0.070323691
0.22120537 -0.30908823 0.069451369
0.22171569 -0.30951038 0.070753574
0.21256682 -0.29819259 0.10122978
0.21256337 -0.29675767 0.10284304
0.21001768 -0.29848194 0.10120199
0.20807397 -0.30012766 0.10192603
0.20574361 -0.30130842 0.10263178
0.20357668 -0.30401805 0.10260849
0.2034083 -0.30212751 0.10277995
0.20090261 -0.3245813 0.067137972
0.20146877 -0.30475324 0.10250808
0.20143294 -0.30293408 0.10277652
0.19873977 -0.3075735 0.1013703
0.19896129 -0.30595908 0.10186587
0.19643715 -0.31007281 0.10004202
0.19670683 -0.30830052 0.10077707
0.19466501 -0.31088397 0.099999599
0.1942613 -0.3092593 0.10043837
0.19137102 -0.32806861 0.070306078
0.19237716 -0.31176281 0.10004862
0.19229403 -0.30973008 0.1004215
0.18980423 -0.32928443 0.071614221
0.19040221 -0.31293923 0.10118622
0.1894258 -0.31166705 0.10163604
0.18778142 -0.32954633 0.07216958
0.18739486 -0.33033389 0.07392332
0.18771555 -0.31427604 0.1015065
0.18547413 -0.33023262 0.075225741
0.18516478 -0.33046392 0.076812975
0.18528967 -0.3150267 0.10174747
0.18382242 -0.32990402 0.077752672
0.1827786 -0.32932508 0.080124751
0.18280204 -0.32923883 0.082312174
0.1826919 -0.31817007 0.10183021
0.18333776 -0.31646198 0.10223496
0.18127342 -0.32797793 0.082666725
0.18166634 -0.32770491 0.085323691
0.18102671 -0.32651216 0.087305307
0.18073551 -0.32526842 0.089762636
0.18063305 -0.32387635 0.092102304
0.18072455 -0.32274741 0.094224975
0.18089671 -0.32157123 0.096247107
0.18106356 -0.32006988 0.098596953
0.18156354 -0.31847084 0.10079142
0.18102908 -0.31659237 0.1014967
0.2288855 -0.30787855 0.068464279
0.22939722 -0.30826461 0.07041923
0.22758558 -0.30816823 0.068920217
0.22741169 -0.30867326 0.07108818
0.22688264 -0.30914199 0.072946504
0.22489768 -0.30929133 0.071902104
0.22562984 -0.30964476 0.073429219
0.2226256 -0.31001183 0.072454378
0.224244 -0.31008402 0.073490366
0.21611539 -0.30179459 0.09829367
0.21619734 -0.30048865 0.099506289
0.21606728 -0.29869315 0.10151881
0.21619114 -0.29763418 0.10333537
0.21510285 -0.30204928 0.098585054
0.21378346 -0.30103534 0.099800453
0.21419042 -0.29862937 0.10094072
0.21411817 -0.29688174 0.10368447
0.21185856 -0.30220628 0.10095623
0.21126077 -0.30078244 0.10141397
0.20951745 -0.30306518 0.10162532
0.20791784 -0.30198619 0.10201274
0.20702448 -0.30443722 0.1021288
0.20678622 -0.30280373 0.10248472
0.20480807 -0.30562156 0.10222414
0.20250075 -0.30832472 0.10136841
0.20241089 -0.30648908 0.10204329
0.2005347 -0.31069523 0.10028592
0.20037264 -0.30889511 0.10104603
0.19770727 -0.31332597 0.098571599
0.19815615 -0.31131917 0.099751242
0.19855666 -0.30940455 0.10073874
0.19587967 -0.31564149 0.09748359
0.19584194 -0.31422985 0.098400652
0.19543618 -0.31231686 0.099399388
0.19302472 -0.33080235 0.072750412
0.19349618 -0.31482038 0.098927155
0.19236365 -0.31373629 0.099847719
0.19190848 -0.33079031 0.073176466
0.19063067 -0.33111343 0.073940381
0.19148085 -0.31592768 0.099795848
0.19078942 -0.31461343 0.10072532
0.18915094 -0.3314988 0.075365677
0.18900539 -0.31678641 0.10058522
0.18890557 -0.31550303 0.10115644
0.18770121 -0.33138147 0.076260179
0.18674569 -0.33135721 0.078266889
0.18637541 -0.33130834 0.080548115
0.18699034 -0.31810415 0.10153957
0.18589827 -0.31708473 0.1019253
0.18506937 -0.3306329 0.081060246
0.18420486 -0.32999653 0.083543487
0.18379341 -0.32930973 0.085703813
0.18396018 -0.32855123 0.088482574
0.18403327 -0.3279171 0.089848481
0.18401553 -0.32181808 0.099846832
0.18443766 -0.31960049 0.10160963
0.18505254 -0.31775874 0.10217009
0.18262874 -0.3276183 0.088232607
0.18283606 -0.32669625 0.090587005
0.1827361 -0.32556701 0.092677452
0.18279739 -0.32441327 0.09489809
0.18298286 -0.32305247 0.097432196
0.18267743 -0.32119548 0.09953551
0.18237256 -0.31996322 0.10055611
0.23010007 -0.3085416 0.072022527
0.23054579 -0.30888319 0.073951803
0.22895929 -0.30873427 0.07242243
0.22856657 -0.30931509 0.074558549
0.22843792 -0.30972388 0.076602228
0.2262346 -0.3100287 0.075190492
0.22680455 -0.31035176 0.076916635
0.22443771 -0.31113207 0.075383395
0.2204233 -0.30624977 0.091607645
0.22033124 -0.30518186 0.093176782
0.22017485 -0.30366397 0.095331512
0.2200828 -0.30225667 0.097405761
0.22000571 -0.30087474 0.099638969
0.22001648 -0.29951864 0.10188715
0.21997982 -0.29833096 0.10379951
0.21882603 -0.30582255 0.094124034
0.21784261 -0.30451959 0.096066087
0.2171284 -0.30256256 0.097454071
0.21778576 -0.30075702 0.09933047
0.21785982 -0.29942709 0.10140127
0.21777317 -0.29777977 0.10391429
0.21626256 -0.30526054 0.097552337
0.21499375 -0.30417678 0.098568469
0.21354273 -0.30334264 0.099620476
0.21333466 -0.30549815 0.099739119
0.21229458 -0.30393028 0.10048896
0.21076053 -0.30665448 0.10087273
0.21036196 -0.30502832 0.10117105
0.20862433 -0.30790395 0.10099425
0.20805436 -0.30616304 0.1015375
0.20609958 -0.31052631 0.10044818
0.20623855 -0.30866668 0.10110657
0.20634371 -0.30674765 0.10173068
0.2037864 -0.31156415 0.10020198
0.20383766 -0.30948234 0.10101621
0.20176698 -0.3140434 0.098841488
0.20155582 -0.3121196 0.099838093
0.1990031 -0.33162495 0.072359324
0.1993739 -0.31800467 0.09581688
0.19938797 -0.3162972 0.096725509
0.19937712 -0.31428251 0.098227277
0.19982854 -0.31249368 0.099419005
0.19661792 -0.33158839 0.072626881
0.19769879 -0.3185643 0.096188113
0.19688693 -0.31674135 0.096873671
0.1946495 -0.33198237 0.073720358
0.19538544 -0.3184765 0.098201901
0.19435802 -0.31760728 0.099051565
0.19231331 -0.33250704 0.075702846
0.19315583 -0.31961909 0.099683851
0.19253293 -0.31896147 0.10002586
0.1903339 -0.33238402 0.076694682
0.19025442 -0.33277592 0.078572795
0.19097421 -0.32087532 0.10050535
0.19056612 -0.3200689 0.10082331
0.18862398 -0.33230612 0.079350881
0.18797767 -0.33206797 0.08161214
0.1878687 -0.33187422 0.084050216
0.18827231 -0.32230982 0.10034726
0.18804383 -0.32043919 0.10134163
0.18616016 -0.33099571 0.084161632
0.18598267 -0.3304095 0.086668685
0.18581516 -0.3294799 0.089163065
0.18537973 -0.3281264 0.091412716
0.18489966 -0.32670212 0.09362147
0.1853781 -0.3256005 0.095995933
0.18565512 -0.32411921 0.098163553
0.18593794 -0.32245103 0.10007482
0.18588123 -0.32091156 0.10124797
0.23098454 -0.30888781 0.075542159
0.23145816 -0.30896929 0.077321261
0.23194322 -0.30894551 0.079328254
0.22974427 -0.30931449 0.077561796
0.23015772 -0.30909234 0.080269426
0.22987822 -0.30885911 0.082309447
0.22745898 -0.31015444 0.078294173
0.22773914 -0.30951685 0.080668479
0.22793889 -0.30884248 0.083148919
0.22753251 -0.30853334 0.085368969
0.22477561 -0.31216976 0.077292673
0.22522034 -0.31175861 0.079000033
0.22512177 -0.31047642 0.081222497
0.22524141 -0.30930862 0.083579347
0.22553243 -0.3085615 0.086034745
0.22543651 -0.30764362 0.088450998
0.22502092 -0.30642185 0.090861589
0.22506252 -0.30524349 0.093212374
0.2250669 -0.3040942 0.09547165
0.2250241 -0.302614 0.097864658
0.2254463 -0.30116019 0.099894002
0.22483933 -0.3003552 0.1022258
0.22490837 -0.29934835 0.10424255
0.22379789 -0.31130266 0.082276881
0.22346723 -0.31040323 0.084413402
0.22316414 -0.30928636 0.086405113
0.22309984 -0.30784309 0.088651069
0.22302251 -0.30637693 0.090883791
0.22299179 -0.30503285 0.093090743
0.22299945 -0.3037543 0.095335558
0.22297645 -0.30246496 0.097477913
0.22305608 -0.3012678 0.099865921
0.22316355 -0.30012 0.10228246
0.22317314 -0.29901141 0.10424046
0.22218302 -0.30999604 0.087584667
0.22127515 -0.30886227 0.089492083
0.22057256 -0.30721745 0.090865731
0.21882363 -0.32565069 0.066023335
0.21901321 -0.3089774 0.092522614
0.21832791 -0.30768824 0.094495542
0.21759903 -0.30650797 0.096251816
0.21715349 -0.30907387 0.09620738
0.21634479 -0.3074252 0.097461835
0.21457011 -0.30865431 0.098625064
0.21363267 -0.30703044 0.099404126
0.21211198 -0.31015921 0.099867389
0.21161321 -0.30825219 0.10036766
0.20969486 -0.31105059 0.10006128
0.2094664 -0.30945656 0.10048009
0.20661461 -0.3301087 0.070040531
0.20713651 -0.31402552 0.098860025
0.20746189 -0.31184852 0.099928573
0.20516965 -0.31623411 0.097296514
0.20502186 -0.31450769 0.098561063
0.20507646 -0.31254622 0.099738002
0.20305073 -0.33233589 0.072625436
0.20284283 -0.31849542 0.095811538
0.20303026 -0.3168292 0.09685424
0.2026861 -0.31515747 0.098152682
0.20072579 -0.33238548 0.072942726
0.20084147 -0.31910789 0.095611855
0.20093727 -0.31710616 0.096380681
0.19851595 -0.3330994 0.074076608
0.19833657 -0.31997484 0.096136458
0.19662279 -0.33313587 0.074530683
0.19601999 -0.33369622 0.075864561
0.19634661 -0.32141045 0.09706153
0.1955099 -0.31990775 0.097843513
0.19418266 -0.33370483 0.077230401
0.19342145 -0.33388457 0.079112656
0.19402567 -0.32288238 0.097767018
0.19343863 -0.3209441 0.099033765
0.1917389 -0.33344582 0.080050118
0.19157168 -0.33346543 0.082242526
0.19177239 -0.32403916 0.098187447
0.19130722 -0.32203209 0.099729836
0.18984602 -0.33286366 0.082600757
0.18970151 -0.33261356 0.085006341
0.18904744 -0.33185807 0.087408803
0.1889177 -0.33092591 0.089688629
0.18879555 -0.32965508 0.092295296
0.18894958 -0.32824653 0.094801828
0.18935278 -0.32658398 0.096666858
0.18932152 -0.32461113 0.098332107
0.18955356 -0.32279241 0.099844038
0.18733272 -0.3307541 0.088022336
0.18752143 -0.33017829 0.089710608
0.1875132 -0.32902691 0.092173174
0.18722287 -0.3277899 0.094249517
0.18744221 -0.326581 0.096149623
0.18733272 -0.32525411 0.097548611
0.2323616 -0.30889365 0.080886036
0.2331045 -0.30845809 0.083016127
0.23371239 -0.30791754 0.085085616
0.23124795 -0.30886561 0.081447169
0.23106942 -0.3086054 0.083371818
0.23159304 -0.30823028 0.085790336
0.23134431 -0.30754101 0.088380426
0.23102263 -0.30660564 0.090823375
0.23103961 -0.30351031 0.096253157
0.23142755 -0.30210274 0.097605556
0.23137873 -0.30085087 0.09950152
0.23147678 -0.29948008 0.10181678
0.23139384 -0.29893115 0.10379549
0.22917306 -0.30863371 0.084103823
0.22884354 -0.30831176 0.086052954
0.22892302 -0.30757549 0.088496573
0.22905564 -0.30655566 0.090938851
0.22915907 -0.30548564 0.093352169
0.22921751 -0.30421209 0.095647983
0.22903287 -0.30264115 0.097627729
0.22881468 -0.30088693 0.099646032
0.22895053 -0.29987296 0.10209171
0.22921963 -0.29921579 0.10431036
0.2269557 -0.3075299 0.088758931
0.2266545 -0.30650607 0.090910226
0.22673163 -0.30538967 0.093296766
0.2266366 -0.30416197 0.095691219
0.22660825 -0.30296677 0.097647354
0.22683802 -0.30128413 0.099634804
0.2264176 -0.30026087 0.1023638
0.22652104 -0.29931518 0.10441585
0.22450893 -0.31327286 0.082740799
0.2243101 -0.31292227 0.084655322
0.22201893 -0.32430583 0.068422295
0.22319806 -0.32273394 0.069535494
0.22271849 -0.3117803 0.088181801
0.22140518 -0.31124777 0.090183735
0.21972342 -0.32625288 0.066948354
0.22082862 -0.32601553 0.068062238
0.22025384 -0.31175956 0.091951475
0.21884885 -0.31107762 0.093232065
0.21786931 -0.32788742 0.066861071
0.21795666 -0.31223005 0.094431475
0.21710488 -0.31054857 0.095726773
0.21551684 -0.32907948 0.066848233
0.21634015 -0.31315243 0.095830023
0.21543975 -0.31185865 0.097031623
0.21479252 -0.3102608 0.09817794
0.21339728 -0.33043325 0.068083473
0.21354917 -0.31331617 0.097873122
0.21279025 -0.31150278 0.099214293
0.21130624 -0.33108842 0.069307134
0.21106428 -0.31572229 0.097313747
0.21120791 -0.31405148 0.09829767
0.21058464 -0.31234035 0.099522904
0.20894033 -0.33116776 0.070146777
0.20847414 -0.33172226 0.07126078
0.20814911 -0.31851846 0.0959692
0.208608 -0.31666142 0.096951693
0.20865995 -0.31466275 0.098434076
0.20658427 -0.33234978 0.07220047
0.20652853 -0.31903985 0.09572494
0.2062972 -0.31709024 0.096616849
0.20444442 -0.33301935 0.073485099
0.20432639 -0.31983128 0.095419623
0.20466256 -0.31772262 0.096375749
0.20185226 -0.33336806 0.074339993
0.20182516 -0.33438686 0.075902469
0.20203972 -0.32300064 0.095670246
0.20182809 -0.32168353 0.095631465
0.19993353 -0.33383495 0.075078629
0.1996841 -0.33448866 0.076430328
0.19987018 -0.32414329 0.09618561
0.19952998 -0.3224957 0.096244738
0.19758762 -0.3346146 0.077597611
0.19709496 -0.33494291 0.079528838
0.19779901 -0.32489496 0.096532971
0.19733593 -0.32360315 0.096739754
0.1952664 -0.33454162 0.080455981
0.19473425 -0.33449134 0.082703322
0.19469275 -0.33447394 0.084685154
0.19504897 -0.32625413 0.096730724
0.19453458 -0.324606 0.097174436
0.19302054 -0.3339892 0.083346829
0.19279923 -0.33385992 0.085509405
0.19278553 -0.33333558 0.088117488
0.19283314 -0.33264983 0.089982852
0.19280292 -0.33060145 0.09341903
0.19295581 -0.32890147 0.095260143
0.19273569 -0.32685995 0.096647479
0.1926153 -0.32528603 0.097422704
0.19118397 -0.3331899 0.085964531
0.19118997 -0.33266956 0.088088997
0.19101751 -0.33163938 0.090576373
0.19087382 -0.33036932 0.092707649
0.19080229 -0.32890368 0.094768837
0.19096692 -0.32731849 0.09633486
0.23392364 -0.30766386 0.086382516
0.23411918 -0.30700722 0.08816848
0.23424187 -0.30597335 0.090602666
0.23434009 -0.30489627 0.093011886
0.2344335 -0.30368498 0.095343649
0.23413491 -0.30191019 0.097205728
0.23432407 -0.30086732 0.099634692
0.2342363 -0.29946342 0.10185526
0.23407841 -0.29806128 0.1036438
0.23296216 -0.30798775 0.08671385
0.23280744 -0.30734384 0.088478304
0.23247749 -0.30631068 0.090845525
0.23223117 -0.30533987 0.093268007
0.23237124 -0.3040289 0.095429949
0.23274761 -0.30242699 0.097071089
0.23292187 -0.30079368 0.0998087
0.23305264 -0.29939598 0.10196066
0.23254849 -0.29840583 0.1041154
0.22455707 -0.32283109 0.071612298
0.22521535 -0.32268018 0.073587149
0.22588776 -0.32138687 0.075628236
0.22641924 -0.31976756 0.077406861
0.2267257 -0.31785703 0.07942152
0.22630513 -0.31687039 0.081969567
0.22562779 -0.31593692 0.084663779
0.2249586 -0.31489497 0.086948991
0.22267789 -0.32616323 0.070144191
0.22379218 -0.3249101 0.071245551
0.22477692 -0.32431468 0.073046215
0.22354314 -0.31415161 0.089522004
0.22259697 -0.31426898 0.091206349
0.22009581 -0.32731012 0.068136081
0.22137287 -0.32754892 0.069621101
0.2213527 -0.31397966 0.092266187
0.21885677 -0.32927814 0.068803228
0.21989316 -0.32909971 0.069674507
0.21961783 -0.31457138 0.093762502
0.21842408 -0.31425315 0.094300479
0.2166774 -0.33072352 0.069240786
0.21634656 -0.31487897 0.095620602
0.21481588 -0.33171073 0.070016943
0.21445474 -0.33242232 0.071376301
0.2143507 -0.3159062 0.09648174
0.21268994 -0.33232567 0.070935592
0.21242699 -0.33268949 0.071999654
0.21228307 -0.31899837 0.096318424
0.21221744 -0.31697121 0.096681654
0.2098549 -0.33290222 0.072952405
0.20979097 -0.31978947 0.095933199
0.21011609 -0.31784078 0.096443966
0.20768158 -0.33341387 0.074149922
0.20741417 -0.33404493 0.075488538
0.20729582 -0.32247514 0.09507814
0.2076861 -0.32087514 0.095391579
0.20563461 -0.33365896 0.074760526
0.2055276 -0.33455184 0.076193608
0.20547003 -0.32312801 0.095087677
0.20596598 -0.32136485 0.095014468
0.2032382 -0.33509377 0.077301271
0.20312658 -0.32435676 0.095587164
0.20099524 -0.33533561 0.078362688
0.20100015 -0.3356958 0.079905793
0.2011399 -0.32568339 0.095933191
0.19879302 -0.3354165 0.080772914
0.1984046 -0.33545104 0.083228551
0.19853202 -0.3284696 0.095796645
0.19876546 -0.32689929 0.096266031
0.19658124 -0.33502281 0.08381848
0.19656344 -0.33491933 0.08603926
0.19649725 -0.33444491 0.088421158
0.1964172 -0.3310656 0.093975693
0.19668883 -0.3293907 0.095340282
0.19641858 -0.32748124 0.096318856
0.19472861 -0.33435807 0.086309075
0.19468884 -0.33377463 0.08870174
0.19449684 -0.33266005 0.091111369
0.19449191 -0.33129916 0.093116187
0.19459845 -0.32958853 0.094986156
0.19481277 -0.32816786 0.096055433
0.22580597 -0.32264444 0.076363906
0.22644232 -0.32185212 0.078788817
0.22671004 -0.32054591 0.080973946
0.22661033 -0.31923181 0.082854576
0.22657047 -0.31829959 0.085354306
0.22607708 -0.31731436 0.087191105
0.22403976 -0.32617745 0.072630204
0.22495091 -0.32546362 0.074864246
0.22525728 -0.32426542 0.077371947
0.2253933 -0.32351682 0.079465628
0.22601205 -0.32255477 0.080979064
0.2253994 -0.31675538 0.088600419
0.2248379 -0.31713313 0.090406239
0.22193697 -0.32838577 0.071272716
0.2230987 -0.32801899 0.073143527
0.22412363 -0.32724831 0.07473994
0.22350192 -0.31679794 0.091944769
0.22212298 -0.31617606 0.092884757
0.2202639 -0.33023107 0.071758308
0.22174159 -0.32981831 0.073336981
0.22042724 -0.31729016 0.094538346
0.21812402 -0.33159584 0.0719961
0.21791452 -0.31786016 0.095589116
0.21708956 -0.31711259 0.095734857
0.21600577 -0.33260402 0.072924569
0.21586591 -0.31925842 0.096143812
0.21513209 -0.31783706 0.096153133
0.21361715 -0.33331463 0.07389158
0.21388145 -0.3336173 0.075337879
0.213606 -0.32070908 0.096262962
0.21088609 -0.33362347 0.07461974
0.2115584 -0.33407775 0.075892396
0.21133308 -0.32338333 0.095602497
0.21126628 -0.3218857 0.095892563
0.20912528 -0.33452231 0.076405652
0.20922473 -0.32402861 0.095129639
0.20672399 -0.33555266 0.078038588
0.20624664 -0.33616707 0.079600528
0.20671004 -0.32703015 0.094893411
0.20676158 -0.3254641 0.095007636
0.20449647 -0.33582994 0.078900702
0.20474881 -0.33628374 0.080501802
0.20487508 -0.32801986 0.094995707
0.20425731 -0.32625884 0.095338181
0.20255944 -0.33612695 0.081345461
0.20224315 -0.33622649 0.083644174
0.20210388 -0.33098477 0.094217688
0.2025497 -0.32902098 0.095088601
0.20193939 -0.32718924 0.095634781
0.20034876 -0.33582342 0.082288861
0.20018777 -0.3358416 0.084175728
0.19984105 -0.33567229 0.086493231
0.19970793 -0.3348642 0.089240603
0.19975129 -0.33356243 0.091520108
0.20005593 -0.33174396 0.093629614
0.19979616 -0.32961494 0.095174894
0.1978959 -0.33517396 0.086936831
0.19770472 -0.33447593 0.089149676
0.19756931 -0.333325 0.091334932
0.19758677 -0.33182055 0.093359947
0.19787487 -0.33018002 0.094907761
0.22712389 -0.32111061 0.084764048
0.22706643 -0.32001221 0.086439312
0.22487763 -0.32618853 0.076437481
0.22488722 -0.32557994 0.077529475
0.22516762 -0.32373407 0.080793887
0.22613528 -0.32340142 0.082574472
0.22692311 -0.32235324 0.084904149
0.22682959 -0.32082182 0.087195396
0.22603148 -0.31962597 0.089536071
0.22513719 -0.3185057 0.090765685
0.22288442 -0.32915658 0.07462924
0.22370765 -0.32818979 0.076493204
0.22388545 -0.32704172 0.078806467
0.22416371 -0.32593244 0.080702215
0.22410747 -0.31925696 0.092378162
0.22291657 -0.31823945 0.093354359
0.22057933 -0.33077747 0.073313393
0.22128677 -0.33069915 0.074909061
0.22185123 -0.33030048 0.077656783
0.22190344 -0.32901403 0.079945184
0.22237135 -0.32802251 0.081176922
0.22293949 -0.32057124 0.093978956
0.22142231 -0.31970775 0.094731331
0.21886556 -0.33193141 0.073883407
0.21935952 -0.33200768 0.075659476
0.21982941 -0.33148605 0.07834132
0.21993017 -0.33033863 0.080476761
0.21935917 -0.32042092 0.095720425
0.21728213 -0.33261803 0.074231707
0.2171241 -0.33293736 0.076148137
0.21785602 -0.33247161 0.078585543
0.21867913 -0.33132917 0.080271438
0.21706921 -0.32156426 0.096048132
0.21456863 -0.33388343 0.076906577
0.21564634 -0.33400762 0.078570276
0.21476728 -0.32417926 0.095741272
0.21470511 -0.32250905 0.096128717
0.21247561 -0.33496705 0.077849202
0.21311262 -0.33554199 0.079239622
0.21238256 -0.32679126 0.094683304
0.21269771 -0.32504931 0.095361538
0.21031177 -0.33582017 0.078534186
0.21041723 -0.33637044 0.080212794
0.21011852 -0.32946172 0.093627051
0.21034294 -0.32745242 0.09435299
0.21054874 -0.32575834 0.094880804
0.20842527 -0.33603039 0.078944236
0.20799051 -0.33654332 0.081200324
0.20790464 -0.33675674 0.083260715
0.20821077 -0.33033052 0.093659535
0.20795444 -0.32841659 0.094340689
0.20569004 -0.33654904 0.082047962
0.20593879 -0.33668822 0.084087171
0.20574848 -0.33651754 0.086153731
0.20577757 -0.33306292 0.092242092
0.20604432 -0.33134091 0.09345419
0.20565291 -0.32955122 0.094462261
0.20384657 -0.33647919 0.08463572
0.20379761 -0.33619797 0.086979575
0.2035968 -0.33521187 0.089441329
0.20388904 -0.33371979 0.091610953
0.20358327 -0.33178887 0.093472235
0.20379677 -0.33014673 0.094455525
0.2015432 -0.33584434 0.087323889
0.20146084 -0.33508709 0.08936929
0.20145407 -0.33370417 0.091601953
0.20162168 -0.33226019 0.093222007
0.22622436 -0.32482064 0.084019296
0.22658812 -0.32370374 0.085828185
0.2266292 -0.32251868 0.088175088
0.22626153 -0.32150683 0.089900315
0.224243 -0.3271206 0.082556665
0.22519597 -0.32651007 0.084362358
0.22586367 -0.32554138 0.086966865
0.22598194 -0.32426491 0.089087054
0.22535092 -0.32270631 0.09139473
0.22437342 -0.32150134 0.092783906
0.22249147 -0.3286536 0.082788765
0.22345892 -0.32857037 0.08465834
0.22383997 -0.32388195 0.093147978
0.22293076 -0.322566 0.094091386
0.22183499 -0.32111362 0.094869435
0.21967658 -0.33007181 0.081710577
0.22069198 -0.32998806 0.083470702
0.22156647 -0.32983688 0.08523149
0.22106811 -0.3239342 0.094910175
0.22010276 -0.32213867 0.095557474
0.21747522 -0.3329083 0.080028452
0.21830153 -0.3323037 0.081897646
0.218959 -0.33156633 0.084269397
0.21931325 -0.33127019 0.085722208
0.21836305 -0.32662097 0.094729349
0.21844441 -0.32470629 0.095355928
0.21843116 -0.32263544 0.0958924
0.21571234 -0.3345809 0.080400743
0.21662878 -0.3345108 0.082429118
0.21609512 -0.32758856 0.094349779
0.21583444 -0.32552105 0.095262133
0.2137381 -0.33583364 0.081043839
0.21458447 -0.33585519 0.082942277
0.21417886 -0.32998899 0.092795998
0.2136966 -0.32788265 0.094203137
0.21155596 -0.3364529 0.081651554
0.21187139 -0.33656392 0.084005818
0.21198356 -0.33239529 0.091539085
0.21164264 -0.33058223 0.092761859
0.21172252 -0.32862639 0.093837574
0.20936656 -0.33675742 0.082683757
0.20915726 -0.33676043 0.084545843
0.20941091 -0.33635822 0.086991884
0.209287 -0.33524129 0.089458302
0.20935673 -0.33339918 0.091425851
0.20895767 -0.3315123 0.092810839
0.20694837 -0.33669573 0.085294351
0.20688057 -0.33634737 0.087165758
0.2069073 -0.33531654 0.089501768
0.20681423 -0.33370391 0.091501869
0.20681672 -0.33247229 0.092622779
0.20528278 -0.3353104 0.0894982
0.22483449 -0.32750127 0.086144306
0.22511235 -0.32683456 0.087491438
0.22518963 -0.32538798 0.089947164
0.22486268 -0.324422 0.091583386
0.2237055 -0.32859012 0.086282216
0.22399776 -0.32789284 0.088294879
0.22409689 -0.32676303 0.090625562
0.22379793 -0.32516241 0.092499375
0.2216804 -0.33003622 0.086868152
0.22210023 -0.32934421 0.089084715
0.2221598 -0.32806993 0.09138009
0.22185823 -0.32632557 0.093404084
0.22185539 -0.32498711 0.094219044
0.21816891 -0.33264425 0.085072152
0.21927288 -0.33129549 0.087248944
0.21965751 -0.33054167 0.089776069
0.21967465 -0.3291983 0.092031576
0.21940526 -0.32742098 0.093908221
0.2169372 -0.33440122 0.083859645
0.21724054 -0.3337819 0.085632771
0.21728741 -0.33256558 0.087913498
0.21734259 -0.33136299 0.090202145
0.21722168 -0.32983527 0.092399336
0.21734627 -0.32845062 0.093764968
0.21491542 -0.33574808 0.084266089
0.21526974 -0.33516085 0.086380787
0.21532905 -0.3338846 0.088675022
0.21500771 -0.33211628 0.090685166
0.21539566 -0.33051276 0.092130646
0.21284577 -0.33639929 0.085103936
0.21257563 -0.33600619 0.086868823
0.21266183 -0.33477256 0.089187697
0.21255565 -0.33339214 0.090728991
0.21082182 -0.3361125 0.087651908
0.21080273 -0.33508214 0.089366436
