# .PCD v0.7 - Point Cloud Data file format
VERSION 0.7
FIELDS x y z
SIZE 4 4 4
TYPE F F F
COUNT 1 1 1
WIDTH 518
HEIGHT 1
VIEWPOINT 0 0 0 1 0 0 0
POINTS 518
DATA ascii
0.043044657 0.036637612 -0.024203105
0.091979146 0.087114766 -0.0054364167
0.094393097 0.091266401 0.0087551856
0.045301232 0.086838022 -0.011098608
0.025255714 -0.0030824698 0.038320675
0.029690988 0.017457951 0.0098457662
0.047081891 0.027261579 0.0096090715
0.034346797 0.038963709 -0.007880169
0.053736906 0.018042281 -0.0093474574
0.074616045 0.047236353 0.01907062
0.070476562 0.040726472 -0.0042432882
0.057597209 0.045141142 0.012376549
0.028257743 -0.029130433 0.0055631925
0.066014633 -0.010813735 -0.0068959612
0.022586137 -0.002561627 0.027802832
0.043750275 0.0049191052 0.023839273
0.0067488551 0.011531683 0.011055965
0.051221993 0.0014048871 0.0051419931
0.0030034259 0.012155635 0.017333817
0.045146625 -0.028785706 0.045209587
0.059361126 0.030064214 0.0097147375
0.052769557 0.023089346 0.027130689
0.069181889 0.035676286 -0.0061220899
0.032303959 0.025620745 -0.029234555
0.073036201 0.026571285 0.028019354
0.045553952 0.015961736 -0.017912107
0.017068386 0.069307476 -0.0070160022
0.040631704 0.034502994 -0.0099972636
0.050301075 0.089232266 0.026340395
0.076507568 0.050664157 0.014451001
0.067226484 0.022432577 -0.0043577002
0.058120534 0.028392304 0.0024907673
0.017546762 0.053906217 0.017138349
0.10347235 0.092312209 -0.0040708054
0.01083851 -0.021480223 -0.0091284038
0.040142685 0.02616646 0.017104162
0.047427051 0.010291414 -0.0075375438
0.04414795 0.0077711698 0.017487179
0.041082758 -0.0072812196 0.012565556
0.011458643 0.023379028 0.012886139
0.040943816 0.0077124783 0.031256195
0.01136177 0.023732359 -0.0011594724
0.063598618 0.026119038 0.011032805
0.016448477 -0.0051293932 0.0043276651
0.029484715 0.014001874 0.010505173
0.048642982 0.017788032 0.0030094199
0.030734774 0.014977032 0.0099880137
0.072606154 0.010495903 -0.023267914
0.027847426 0.032640167 0.023603288
0.047279462 0.036272995 0.0067253448
0.058310412 -0.032934215 0.034776956
0.055375412 0.022670642 0.041156091
0.048568029 0.038336232 0.035545941
0.044353794 0.051202685 0.030940611
0.039172929 0.047582436 0.033864357
0.1022777 0.029824734 -0.0038674697
0.047388393 0.074809566 0.044512093
0.021821564 0.081360139 0.027190596
0.042706661 0.095549949 0.016761346
0.10653128 0.071031436 0.011988997
0.043574471 0.12621187 0.036785558
0.069410212 0.074134879 0.017761817
0.077792719 0.093861632 0.010815609
0.048816361 0.096442603 -0.01975131
0.045978852 0.11310392 0.039415717
0.063948102 0.074566022 0.002295725
0.095518015 0.12258764 0.028272621
0.047371283 0.057538267 -0.014161764
0.052354358 0.095946662 0.026574261
0.024455275 0.093792789 0.026506223
0.10563844 0.10408173 0.0075328927
0.022771703 0.078353696 0.0047973888
0.010038937 0.071230926 -0.00081055425
0.10460946 0.096322052 0.0312756
0.058574665 0.071626395 0.030934332
0.083595969 0.076514229 -0.00035673939
0.017313825 0.092488557 0.014102442
0.086026549 0.083169699 0.014687039
0.095284812 0.064790763 0.036276236
0.057297464 0.10984173 0.033978011
0.072122172 0.12030067 0.019804571
0.060264319 0.080924958 0.0002253484
0.06444858 0.098344751 0.020735919
0.10872309 0.12890483 0.042352669
0.07418251 0.076665312 0.014278149
0.05114099 0.11522263 0.018292164
0.076650918 0.057345297 0.008927268
0.096738808 0.036898848 0.0040324889
0.095307723 0.0055773538 -0.025850501
0.093140364 0.024997275 -0.00091690943
0.067514203 0.041304369 -0.019269535
0.080406941 0.073097929 0.018993098
0.068912119 0.066546008 0.044023994
0.059840478 0.11444384 0.02518443
0.043357074 0.085241079 0.036775719
0.084005691 0.075783171 -0.012478134
0.12968484 0.085260302 0.050728071
0.014627308 0.06587299 0.044946458
0.072247364 0.13673352 0.038071118
0.053948678 0.10398678 0.025570417
0.092649125 0.078814492 0.015561868
0.11798063 0.095111392 0.0065956358
0.036623791 0.12148066 0.048449546
0.059618618 0.10823458 0.0083197318
0.03906497 0.092070587 0.035786532
0.073741779 0.091031782 0.022515934
0.074480258 0.1397382 0.024854852
0.054020323 0.068562798 0.014781202
0.10000208 0.067211993 0.04579407
0.09367156 0.058647644 0.028430367
0.053462476 0.11547562 0.0010103248
0.075989179 0.06474331 0.030781697
0.042240176 0.05472596 0.027810724
0.052426301 0.058115415 -0.021839293
0.047308527 0.03102072 0.041742764
0.062568404 0.047609374 0.058380634
0.055173349 0.058245413 0.022656236
0.031713106 0.066355065 0.037894633
0.084281012 0.074327439 0.049258344
0.05316405 0.023228174 0.031571425
0.089168914 0.043832611 0.047251768
0.074176461 0.034124572 0.00067936629
0.052153517 0.060391616 0.018854421
0.073722057 0.092056207 0.0067735277
0.078806192 0.070390366 0.031301156
0.067287534 0.05174192 0.063870192
0.095724925 0.066130251 0.047574572
0.085982226 0.10412498 0.02706535
0.061186127 0.067456648 0.05582913
0.040815447 0.10155774 0.048156917
0.069461957 0.066586435 0.062840879
0.099038661 0.051448632 0.051472906
0.076962933 0.065013275 0.0086569153
0.10086178 0.065627374 0.033960141
0.044761524 0.076435722 0.068799779
0.040425718 0.11216208 0.040334281
0.036826376 0.08506605 0.045024194
0.027722985 0.091982313 0.027005356
0.045224514 0.076858133 0.057025671
0.077086449 0.073569886 0.017169841
0.056446552 0.083057694 0.0043340828
0.051565826 0.070764303 0.027094992
0.047101427 0.10758688 -0.0045192558
0.044073164 0.1000463 0.059337713
0.070579194 0.097882479 0.037785623
0.083300516 0.099799082 0.025525447
0.042943224 0.11026593 -0.01170768
0.11125181 0.061714668 0.016384214
0.078927167 0.071437202 -0.0074793082
0.046865128 0.086663097 0.020276632
0.057593256 0.11624936 0.041027006
0.066154711 0.10591203 0.0088056065
0.050736111 0.065392293 0.025376718
0.053125255 0.10346868 0.015094657
0.068402603 0.090448573 0.041118659
0.03799307 0.013164442 0.024204027
0.070791669 0.015398564 0.026711822
0.058415826 0.037710093 -0.0038144235
0.061839417 0.046405774 0.014950693
0.080387533 0.048204385 0.053127423
0.071700141 0.028682251 0.033144336
0.055122562 0.058583017 0.050533056
0.041052304 0.039193556 0.015729167
0.10208414 0.029599963 0.017542107
0.033903271 -0.0027915426 0.023859816
0.066881932 0.033574477 0.034004822
0.082318865 0.069875553 0.023232756
0.094191082 0.047858901 0.0028550569
0.046207603 0.019170674 0.014750085
0.075710759 0.059558507 0.029269958
0.094653837 0.057507038 0.073875234
0.10504121 0.041662544 0.037831403
0.082435049 0.042624801 0.023827814
0.078175195 0.07258971 0.037027143
0.1183382 0.054974277 0.049086146
0.10408501 0.03028365 0.055922329
0.10502818 0.03320035 0.05256246
0.098267309 0.058817014 0.037242927
0.052241422 0.071671113 0.030183278
0.054420441 0.093349114 0.033346925
0.08196719 0.084550314 0.035935517
0.11373217 0.047658078 0.03169347
0.086672284 0.077004209 0.036666427
0.058103457 0.089232802 0.054947224
0.095288567 0.054997563 0.061412297
0.060323372 0.12487625 0.028116141
0.020584626 0.11308827 0.033500902
0.05693803 0.075305842 0.021190528
0.079015777 0.073876217 0.023365427
0.080286182 0.090556487 -0.0082298834
0.11938816 0.10053587 -0.016028421
0.13925605 0.097824924 0.048802927
0.036039658 0.032950524 0.063563399
0.042300947 0.047662757 0.037010338
0.022002606 0.093298912 0.038420655
0.10609445 0.11053042 0.0057195034
0.094252244 0.089402892 0.0044567846
0.08328139 0.092870578 0.0082642101
0.058847439 0.074245833 0.011458784
0.050392639 0.11327839 0.019433226
0.037099812 0.08154209 0.027057545
0.063114434 0.049352463 0.019579735
0.082336232 0.069429144 0.0093754157
0.046178896 0.085319951 0.020488296
0.046341885 0.081685856 0.031003982
0.096718289 0.10368689 0.021178994
0.075770788 0.076824479 -0.011244606
0.039493203 0.082610093 0.047190249
0.086638525 0.068110086 0.023887746
0.056351706 0.076163426 0.039646331
0.055238359 0.087729342 0.031969186
0.093398757 0.078334928 0.04213918
0.074783131 0.10431302 0.05128973
0.053091772 0.054287624 0.034826495
0.094294138 0.010428371 0.04342515
0.062632948 0.023886112 0.02391411
0.07512407 0.061288711 0.046673447
0.070596874 0.031364925 0.030785959
0.062385127 0.023009833 0.03966032
0.059537455 0.068633616 0.038858466
0.080641702 0.053899214 0.048429929
0.065400183 0.047226265 0.055639595
0.058705807 0.032758545 0.063887343
0.050452158 0.046535145 0.015036311
0.054197505 0.062515892 0.040574461
0.075357668 0.074954599 0.052919514
0.059692893 0.064278036 0.043525163
0.075828418 0.03893875 0.034873724
0.0057995468 0.046678774 0.035826474
0.021801926 0.055546515 0.036357462
0.06702669 0.044895519 0.032769799
0.092754729 0.045607105 0.044206366
0.083714843 0.047738228 0.052593928
0.035196591 0.092923798 0.011851594
0.036621738 0.038976967 0.062262848
0.047136888 0.036674663 0.031193079
0.067051411 0.086495481 0.039884567
0.091426581 0.04763101 0.05746593
0.088597819 0.052538779 0.061768301
0.095950708 0.0825992 0.047113419
0.049772751 0.038033627 0.0066659153
0.062232319 0.047050893 0.041951783
0.10305934 0.03949067 0.027306426
0.10480092 0.067149825 0.017742528
0.078985512 0.023242958 0.014323384
0.06189749 0.080187552 0.025691081
0.085352793 0.049746007 0.033009395
0.07450413 0.046615846 0.02760455
0.1033415 0.087085083 0.003807079
0.10220019 0.034746986 0.021318089
0.074458987 0.071529068 0.025611743
0.056562725 0.030736919 0.023602298
0.055206899 0.047250241 0.030697247
0.075875804 0.062580772 0.052127074
0.050470203 0.050945327 0.040255278
0.076267473 0.059508875 -0.0017728023
0.077685051 0.073339075 0.027255511
0.070149384 0.10884339 0.015168639
0.086862847 0.077120274 0.05252745
0.095275678 0.10078964 0.050652418
0.091224834 0.077748336 0.051642254
0.075848795 0.089899115 0.039952073
0.051888298 0.091009125 0.048875187
0.069952391 0.083190411 -0.0034845211
0.027176572 0.095926777 0.032600828
0.073884711 0.070899218 0.044071268
0.080449626 0.069541 0.035349373
0.06792926 0.12011431 0.070045397
0.046397738 0.088817999 0.039403729
0.083228201 0.068192974 0.026735388
0.073705897 0.078593947 0.040757984
0.041105516 0.10704713 0.058387563
0.058558129 0.095131412 0.051949322
0.049390785 0.065460868 0.041746851
0.045770839 0.11759394 0.027741764
0.065118231 0.096007213 0.029004043
0.093999401 0.058213294 0.02338028
0.07351426 0.06233532 0.052195579
0.053769674 0.073480301 0.083531842
0.042319991 0.078510337 0.050766744
0.036671884 0.093821906 0.0027033575
0.056478199 0.081859775 0.045909204
0.0568913 0.09046036 0.052242428
0.095379755 0.050470594 0.065728933
0.065085314 0.092319466 0.020076521
0.066946812 0.059082221 0.050395153
0.050412748 0.030433696 0.06063161
0.06057005 0.048512265 0.032237325
0.10613202 0.081922017 0.046494342
0.05709723 0.052787691 0.02063245
0.081320524 0.078068867 0.054589324
0.10248302 0.044908404 0.031046182
0.076492667 0.050934978 0.051232535
0.073172942 0.079133011 0.034821641
0.027514722 0.083837993 0.073327668
0.053900145 0.074269049 0.048882648
0.059352729 0.079852119 0.025259875
0.061508715 0.052105535 0.039850447
0.12019098 0.057511237 0.032547116
0.029514702 0.06398683 0.031579636
0.085502729 0.067168124 0.02482686
0.051124781 0.053931907 0.011990726
0.078871518 0.092806555 0.0047133043
0.089242205 0.072772831 0.033136714
0.050424129 0.054203842 0.049466826
0.074721754 0.031088948 0.017025646
0.050091613 0.033209153 0.035727225
0.085841984 0.070668295 0.054999266
0.069546491 0.059690036 0.020586058
0.038387116 0.063079692 0.030841149
0.053365525 0.073907092 0.069899991
0.044841494 0.050647892 0.081657827
0.024571877 0.044408828 0.054313749
0.051802326 0.091911346 0.059258178
0.067670248 0.055882942 0.055538956
0.036655292 0.056404877 0.057763673
0.033404954 0.073810443 0.027377171
0.047694683 0.05766689 0.039014682
0.069102243 0.054222066 0.041543558
0.038025014 0.052087218 0.030213427
0.048291132 0.045158289 0.037783511
0.06647253 0.072146602 0.020638781
0.048044845 0.050160456 0.042090952
0.05631322 0.05506748 0.063279644
0.04761447 0.061995149 0.062742867
0.088141799 0.039649397 0.036172654
0.072234467 0.05473049 0.049584847
0.05365191 0.075266823 0.040854041
0.05110696 0.085731238 0.069302768
0.017455919 0.085689008 0.074778974
0.070954628 0.098310485 0.034637328
0.053885736 0.041671067 0.04644426
0.06370461 0.10532443 0.067442194
0.045188945 0.061251886 0.036724139
0.044538561 0.055510208 0.058346584
0.064849764 0.062181991 0.071044065
0.082951173 0.083171971 0.045202818
0.072045982 0.033318266 0.031322762
0.04820969 0.054370567 0.060428657
0.0096187145 0.049042527 0.051480357
0.087323844 0.036690939 0.041601591
0.025945919 0.030654049 0.041666262
0.044335667 0.067112274 0.041814715
0.086323857 0.066517465 0.068172321
0.068664499 0.075256437 0.026254911
0.058323376 0.040697359 -0.0039048418
0.011420153 0.064793877 0.025949361
0.025027215 0.086684167 0.051088333
0.040360205 0.08041361 0.043450359
0.067992739 0.073928699 0.093095616
0.027869694 0.049073357 0.061757378
0.094693683 0.072788149 0.079343341
0.029446078 0.064957663 0.054465733
0.036601983 0.069173507 0.024738317
0.07334397 0.04372225 0.045045253
0.014461065 0.029637404 0.047757626
0.028628521 0.07058946 0.082597211
0.08546108 0.087138258 0.056924257
0.053026427 0.056069732 0.029582666
0.071920589 0.023844119 0.09333694
0.082683615 0.056459814 0.030628346
0.0094726477 0.039916679 0.054420207
0.0076199826 0.084674664 0.052980758
0.027749518 0.065330312 0.09272787
0.053778406 0.072330534 0.040297534
0.051896207 0.052797124 0.060610395
0.025363322 0.063942283 0.044087876
0.040667735 0.072079264 0.05661425
0.065906346 0.055152666 0.057795539
0.051323753 0.067163192 0.037857361
0.054864079 0.056229465 0.033902057
0.03648261 0.052060448 0.043385342
0.0433162 0.066309176 0.023979492
0.039777219 0.017495517 0.032405622
-0.0014933893 0.01625759 0.087762773
-0.0061774869 0.019339617 0.081350394
0.021025531 0.032409482 0.04783164
-0.0079514943 0.032300822 0.065143146
-0.0038274266 0.019107606 0.07469026
-0.014897056 0.031526644 0.10058734
0.027761726 -0.011427704 0.052823871
0.03218668 0.02349445 0.082298763
0.047051676 0.010674329 0.042016037
0.053056672 0.047383707 0.027322296
0.045718584 0.047915623 0.060712207
0.019699657 0.05652906 0.1036244
0.074322782 0.031903252 0.044459589
0.036855757 -0.0034908876 0.067304917
0.063376032 0.041982051 0.053595975
0.053948719 0.062240455 0.072145864
0.076023363 0.036695208 0.07437706
0.0052534565 0.032833874 0.061310895
0.05814565 0.043271132 0.046186585
0.017220642 0.062094353 0.049216159
0.068872117 0.074473932 0.045320489
0.037842996 0.049072292 0.036972892
0.027467743 0.05455843 0.0580667
0.059279207 0.061302848 0.061270058
0.041454971 0.039608985 0.042402104
-0.013262848 -0.0044582346 0.050280355
0.037691288 -0.015360357 0.060369153
0.0079596592 0.002323444 0.061932661
-0.0049653733 0.07153029 0.049659211
-0.0096874777 0.057116099 0.053936969
0.032908715 0.020811874 0.049409509
0.024000395 0.011301023 0.078057647
-0.00097581465 0.017247062 0.036876861
-0.00075670145 0.033631861 0.03507616
0.020610273 0.062003724 0.075365834
0.032454897 0.032203097 0.079075351
0.019740872 -2.1984801e-05 0.087112956
0.021373715 0.061766688 0.049226813
-0.0099600852 0.027526252 0.071493059
0.0056899693 0.044585485 0.067719743
0.03276825 0.039811976 0.070933521
0.041799475 0.053944781 0.069041625
-0.029985547 0.039144773 0.075744852
-0.010028478 0.036723517 0.084680542
0.042482536 0.033552393 0.080880396
0.061635338 0.036306877 0.033380594
0.036247797 0.053680509 0.069976695
0.02337124 0.029018406 0.083370775
0.058546487 0.038711723 0.053458311
0.073070645 0.043768857 0.039841637
-0.0064911414 0.031054005 0.05665908
0.05460576 0.021407276 0.089216568
-0.0045103021 0.066363849 0.094490767
0.039358281 0.059856445 0.028781705
0.03726257 0.062563784 0.028254241
0.0062533133 0.064482205 0.050077345
0.045410447 0.029542353 0.040112868
0.025800068 0.025204372 0.048748136
0.045230146 0.04930114 0.070182279
0.031580325 0.048870716 0.057104118
0.039702062 0.041985583 0.068754502
0.035183392 0.036530659 0.066730775
-0.020935494 0.024577266 0.029573914
0.012028067 0.027803913 0.035171483
0.013826366 0.015039572 0.067368433
0.013920817 -0.0048629763 0.043039352
0.028848447 0.037703544 0.04301367
0.029071799 0.030197632 0.063309789
-0.0033367099 0.0017631585 0.10321427
-0.0044295695 -0.0015481645 0.073512003
-0.018337611 0.0019349623 0.072044313
-0.0093233716 0.012189466 0.061501779
-0.024451111 0.0022660028 0.05719085
-0.010455068 0.029801574 0.041556362
-0.012698984 0.024603462 0.067720875
0.085679494 0.014883002 0.075104408
0.0034123892 0.014615133 0.045264296
-0.00014038756 0.008812597 0.063410722
0.018925609 0.032683909 0.073871724
0.012465743 0.033089776 0.038066719
0.013231823 0.058920231 0.031150106
0.010975769 0.021541595 0.091518827
0.020130076 0.037469372 0.096014865
0.031107435 0.017596865 0.070860095
0.0089539438 0.028263556 0.078945421
0.033512231 0.0080432277 0.081916928
0.057177395 0.03186129 0.050954334
-0.0076431837 -0.0022266619 0.085621901
0.00052455999 0.031061241 0.081332758
0.037458077 0.007054504 0.079046622
0.013907101 0.022512872 0.056662992
0.017930757 0.035120502 0.078038819
0.024635058 0.018622544 0.074142084
0.065455921 0.04831221 0.06497395
0.036844812 0.0044748522 0.083926298
0.052684776 0.041003622 0.09187784
0.027295524 0.059897043 0.041678466
0.071367726 0.032958094 0.09480761
0.03686098 0.049724214 0.03877762
0.030176824 0.025328632 0.11817558
0.031151317 0.054882102 0.068510689
0.006818084 0.041934296 0.055913232
0.061473247 0.061821852 0.083464541
0.043397591 0.031236183 0.085338585
0.04138856 0.028527893 0.067971595
-0.0056209192 0.040652227 0.080842935
0.0466168 0.065787978 0.036636882
-0.006245859 0.044514135 0.045284666
0.028079545 0.016677696 0.082701325
0.037655778 0.042689651 0.097446673
0.061394718 0.028373383 0.094244003
0.046056345 0.038620204 0.084939145
0.025378544 0.056841686 0.075210899
0.023304012 0.071665667 0.064353064
0.041575726 0.053415004 0.080275245
0.015181438 -0.003407198 0.095299542
0.030804276 -0.0040601091 0.077317551
0.019808505 0.039058011 0.07507582
0.011250568 -0.015835194 0.068916768
0.0014981236 0.034237098 0.06671387
0.013377416 0.035277434 0.085497536
0.037262887 -0.028972704 0.053861838
0.045460165 0.044383384 0.057184555
0.024860635 0.022870017 0.087939933
0.002364751 0.0035723308 0.1095143
0.005887026 0.010006873 0.065909922
0.033118065 0.050827827 0.066616818
0.02674306 0.017710825 0.080481455
0.029627131 0.0094341906 0.091456711
0.035127655 0.015544107 0.062704109
0.0097092586 0.037836947 0.044873856
0.014492691 0.048276849 0.082440972
0.030873872 0.021353289 0.061608121
0.070125408 0.037304156 0.063647524
0.023029884 0.030073216 0.057169482
0.030089267 0.018954815 0.11024739
0.052421436 0.008999506 0.08762975
-0.0149514 0.038635157 0.075075679
0.026420861 0.01524419 0.067263186
0.049710773 0.057676308 0.068294145
0.012392246 0.059617057 0.084188245
0.04488771 0.021119071 0.067772008
0.058090411 0.088960238 0.097451746
0.019748081 0.036123317 0.063829929
