# .PCD v0.7 - Point Cloud Data file format
VERSION 0.7
FIELDS x y z
SIZE 4 4 4
TYPE F F F
COUNT 1 1 1
WIDTH 1223
HEIGHT 1
VIEWPOINT 0 0 0 1 0 0 0
POINTS 1223
DATA ascii
0.35248041 0.022016667 0.15837276
0.35599554 0.030867703 0.16043624
0.36077595 0.041255169 0.16321099
0.36448163 0.051596679 0.16782886
0.36893418 0.061617829 0.17215617
0.37029707 0.068139054 0.17847271
0.34195 0.012322003 0.16439842
0.34430429 0.019911753 0.16415152
0.34647703 0.031647734 0.16630378
0.3502655 0.042477883 0.16990378
0.35440904 0.052946705 0.17379533
0.3596316 0.062883846 0.17944099
0.36568633 0.07112176 0.18488258
0.36798149 0.07701499 0.19168025
0.3347089 0.010755595 0.1705406
0.33553764 0.020605126 0.17127547
0.33752996 0.032306731 0.17346221
0.34112054 0.043277632 0.17694658
0.34531292 0.053712621 0.18186061
0.35048798 0.062971652 0.1870809
0.35645446 0.072159573 0.19261885
0.36256441 0.079939514 0.19916978
0.36439773 0.084225491 0.20546603
0.32754463 0.0092223436 0.17867099
0.32774785 0.020071916 0.18057293
0.32890207 0.030544212 0.18416943
0.33233872 0.042378586 0.18676066
0.33778852 0.052508768 0.18964502
0.34286717 0.063561723 0.1965908
0.34827787 0.072527274 0.20124082
0.35432768 0.079524599 0.20838834
0.36025721 0.08422856 0.21091314
0.32109568 0.0088043138 0.18849501
0.32174817 0.018592045 0.19024898
0.32411656 0.029980384 0.19296409
0.3255634 0.040976822 0.1960225
0.32988185 0.051694792 0.20137058
0.33535427 0.061332956 0.2055583
0.34348601 0.070528135 0.21150315
0.34879333 0.077696621 0.21640849
0.31678575 0.0093095545 0.19677529
0.31529078 0.016509037 0.20099898
0.31626609 0.028100662 0.20365083
0.31960642 0.039153114 0.20665561
0.32407767 0.049665999 0.21142812
0.3296634 0.059580669 0.21668276
0.33554181 0.067862295 0.22207405
0.34171697 0.076280519 0.22612211
0.31231329 0.01708062 0.21023124
0.31304136 0.025857624 0.213633
0.31568235 0.036712356 0.21726625
0.31963637 0.047192626 0.22184452
0.32510722 0.056872949 0.22724009
0.33094642 0.064066797 0.23030463
0.33700562 0.070786834 0.23090567
0.30982471 0.025103215 0.22281164
0.31178629 0.034456953 0.22781904
0.31571686 0.044435281 0.23200509
0.3209641 0.053509824 0.23504502
0.37405372 0.017544838 0.14790347
0.3782751 0.027110025 0.1502306
0.3818098 0.03680677 0.1525601
0.38579473 0.04674872 0.15741293
0.38969487 0.056190558 0.16277
0.39376327 0.065325782 0.16773848
0.36379257 0.0074563473 0.15239452
0.36633986 0.016758662 0.15028037
0.36975136 0.027925733 0.15365496
0.37226748 0.038966186 0.15637293
0.37695307 0.049460538 0.16095272
0.38175917 0.059253454 0.16553487
0.38705263 0.067955814 0.17119133
0.3913998 0.073690601 0.17861164
0.3934508 0.081131011 0.18475807
0.35263583 -0.002321519 0.15747108
0.35501227 0.0057741888 0.15520352
0.35653991 0.016921764 0.15576997
0.36160821 0.029870067 0.15716842
0.36436257 0.03598183 0.15881217
0.37497216 0.064320073 0.17242616
0.37782374 0.070433065 0.17784715
0.38355386 0.076740474 0.18426827
0.38874239 0.084373161 0.19052355
0.34564602 -0.0036638491 0.16288213
0.34477347 0.0059699081 0.16200623
0.34868175 0.014571823 0.15957817
0.37318152 0.074155271 0.18451369
0.37449512 0.079358481 0.19132082
0.38097164 0.086036205 0.19932954
0.38369885 0.089448974 0.20733403
0.33779898 -0.0050777439 0.17115459
0.33620977 0.0035509281 0.17046253
0.3690182 0.082872093 0.19958502
0.37252256 0.086439192 0.20728475
0.37884572 0.090081841 0.21287255
0.33078438 -0.0061255489 0.17972891
0.32887188 0.0025781058 0.17914589
0.35571843 0.076346323 0.21340132
0.36465639 0.087106436 0.21594205
0.3716774 0.089831598 0.22142614
0.32396245 -0.007224841 0.18911812
0.32185817 0.0017412826 0.18970251
0.35196885 0.07535737 0.21741776
0.35771903 0.085629918 0.22634718
0.36508182 0.088326022 0.22977218
0.31750971 -0.0079010129 0.19942328
0.31623998 0.0024439394 0.20027785
0.31391039 0.0099219345 0.20456904
0.34352273 0.077482112 0.23277698
0.35186425 0.082313538 0.23554525
0.36071095 0.086197622 0.23635915
0.31311399 -0.0074586701 0.20811923
0.31094563 0.00025207922 0.2109161
0.31073579 0.011340857 0.2126776
0.33225244 0.065908425 0.23657952
0.33963752 0.07289163 0.23985319
0.34684488 0.077334553 0.24368867
0.30649343 -0.00047623366 0.22100675
0.3065598 0.011086404 0.22264457
0.30677345 0.021620728 0.22693694
0.30917177 0.032186907 0.23341881
0.31401742 0.043858305 0.2383135
0.32034197 0.054091427 0.24102426
0.32678926 0.062024653 0.2436662
0.33480537 0.069965057 0.2505421
0.34229493 0.074051335 0.25049037
0.30289966 0.00021997467 0.2297056
0.30226195 0.0086853839 0.2339846
0.30314031 0.018846083 0.23748289
0.30639464 0.031076759 0.2409097
0.31130013 0.040900514 0.24490303
0.31609732 0.050393261 0.25024503
0.32273 0.058451358 0.25622848
0.32943994 0.066159695 0.25738022
0.2998926 0.0095143281 0.24317759
0.30063322 0.016786505 0.24727969
0.30395156 0.026954375 0.25252879
0.30796131 0.037104305 0.25646919
0.31362039 0.047111634 0.2600863
0.3187139 0.054577649 0.26230419
0.39316946 0.022501446 0.1481702
0.39675689 0.031820331 0.15072688
0.40132135 0.04178774 0.15484226
0.40530956 0.051578123 0.15965851
0.40807426 0.057220332 0.16373381
0.37862161 0.003465794 0.14672768
0.38252589 0.01166717 0.1464587
0.3871519 0.022031769 0.14825891
0.39077306 0.033773653 0.15114821
0.39531085 0.04418616 0.15604
0.39962202 0.054326728 0.16114904
0.40367162 0.063098624 0.16701788
0.4068847 0.071838036 0.17381273
0.40929449 0.076213136 0.18111756
0.3674216 -0.0073144864 0.15161923
0.37108356 0.00054367632 0.15022728
0.37112486 0.010847058 0.14791445
0.40037176 0.075164244 0.18013474
0.40488553 0.082255483 0.18653119
0.40628451 0.085876778 0.19355464
0.3571066 -0.01825509 0.16064863
0.35905984 -0.011059256 0.15700699
0.35964739 -0.00019003451 0.15310894
0.39703107 0.086278215 0.19386441
0.40018979 0.087881155 0.20045777
0.34984738 -0.019497244 0.16569287
0.35002103 -0.013212843 0.16329367
0.38780466 0.088034064 0.20151266
0.39427716 0.091775052 0.20968425
0.39586297 0.093861714 0.2170223
0.34175143 -0.021651762 0.17255364
0.34044528 -0.011997854 0.17079046
0.38633138 0.093261406 0.21795416
0.3905533 0.09450049 0.22264911
0.33374104 -0.024898406 0.18001297
0.33189538 -0.011832131 0.18071416
0.37949568 0.092222206 0.22799838
0.38432589 0.093147285 0.23111677
0.32720745 -0.023660611 0.19047287
0.32449022 -0.01370178 0.18931693
0.37255472 0.089937136 0.23780861
0.37920886 0.091981821 0.23838377
0.3228561 -0.022577615 0.20089833
0.31965905 -0.016979292 0.2021843
0.35597119 0.082743756 0.24200535
0.36494663 0.08567825 0.24601629
0.31964591 -0.023159841 0.20856568
0.31556967 -0.016979018 0.21227972
0.31108603 -0.0071373582 0.21483777
0.35283855 0.079001084 0.25249711
0.35893908 0.081170954 0.25374836
0.31047362 -0.015539704 0.22271299
0.30705798 -0.007488206 0.22407834
0.33612469 0.072060116 0.25862521
0.34717235 0.075940624 0.2608335
0.30676749 -0.015435351 0.23199569
0.30413389 -0.0088126808 0.23535194
0.30205271 0.0033021979 0.23805235
0.30595425 0.012969013 0.24220157
0.32194704 0.050136298 0.25675163
0.3246493 0.056669854 0.25946364
0.33170944 0.067089066 0.26559284
0.33936581 0.071832612 0.26929989
0.30237418 -0.0072833374 0.24444839
0.30074945 0.00028434023 0.24921398
0.30334184 0.013354462 0.25212204
0.30621919 0.022580668 0.25545195
0.30799928 0.035091974 0.26143241
0.31359032 0.0458887 0.26561454
0.32064953 0.054409076 0.27173987
0.32826579 0.061771706 0.2748304
0.3351151 0.067584015 0.27567139
0.29941881 0.0021746792 0.2576834
0.29993871 0.010457199 0.2628288
0.30325359 0.020556115 0.26731193
0.3082456 0.030730903 0.27182224
0.31388649 0.041223545 0.27434969
0.31952533 0.049942516 0.27729854
0.3247433 0.055779491 0.27990738
0.39446884 -0.00079479069 0.14771001
0.39597672 0.0071787573 0.14730686
0.40014058 0.01741796 0.14835143
0.40578189 0.027817506 0.15073703
0.41080803 0.038162097 0.15441863
0.41411358 0.048532065 0.15945351
0.41691098 0.057738308 0.16577794
0.42091298 0.064615928 0.17239633
0.38223219 -0.012412786 0.15061913
0.38569546 -0.0039102212 0.14764109
0.38953653 0.0067309514 0.14645052
0.41156739 0.06324017 0.16870253
0.41594106 0.069654033 0.17527619
0.41778722 0.07690832 0.18377133
0.42102322 0.081620842 0.19053386
0.37244621 -0.023357531 0.157692
0.3741141 -0.01499591 0.15284306
0.37684721 -0.0054692961 0.14990176
0.41265953 0.082890607 0.18786074
0.41503593 0.084667623 0.19559705
0.36374307 -0.023650816 0.1608132
0.36547172 -0.0175601 0.15698418
0.40904242 0.088283837 0.20507909
0.41142359 0.090287767 0.21250637
0.35279676 -0.035739589 0.16918728
0.35476896 -0.027278934 0.16634548
0.40196732 0.091885477 0.21156886
0.40450099 0.09244366 0.21840496
0.34560242 -0.036649819 0.17395663
0.34474349 -0.029056538 0.17169173
0.39760086 0.093381882 0.22742602
0.33893678 -0.036162034 0.18248342
0.3343139 -0.031769264 0.18536472
0.39106935 0.092939399 0.23686495
0.33740193 -0.037254356 0.1918053
0.33232075 -0.032234251 0.19379273
0.37563804 0.089284629 0.24474984
0.38337028 0.090408385 0.24547473
0.32590494 -0.03128716 0.20441949
0.37138945 0.085840613 0.25269163
0.3778609 0.086536586 0.25506335
0.3208096 -0.029615154 0.21474397
0.31658974 -0.023535479 0.21618551
0.36539102 0.081189573 0.26108286
0.37435046 0.083798245 0.26196027
0.31671867 -0.030208737 0.22480011
0.31293646 -0.024233235 0.22567977
0.35116243 0.076020554 0.26713622
0.35800633 0.076743379 0.26880768
0.31426883 -0.030720014 0.2324881
0.30906162 -0.023412192 0.23630926
0.30476677 -0.015411487 0.24038976
0.34603927 0.071971469 0.27636343
0.35282287 0.073285893 0.27725041
0.30677482 -0.022029079 0.24609676
0.30402327 -0.014499702 0.25012428
0.30180162 -0.0058901198 0.25388229
0.33243936 0.060920306 0.28270513
0.33998024 0.065551303 0.28301582
0.30386785 -0.013833631 0.25920859
0.30197135 -0.0050275475 0.26404029
0.30043963 0.0044483244 0.26875108
0.30401689 0.018314626 0.27408746
0.30933377 0.028529398 0.27836686
0.31570667 0.038124658 0.28262714
0.32261777 0.046411179 0.2860482
0.33004248 0.054892972 0.28722206
0.33766302 0.059265111 0.28985548
0.30324051 -0.0039068609 0.27289364
0.30243269 0.0045455508 0.27570888
0.30543715 0.014856882 0.27976811
0.31046897 0.024544638 0.28466779
0.31614694 0.033563253 0.28864306
0.32152176 0.040085725 0.29155064
0.41699195 0.012310177 0.15018323
0.41957629 0.022358354 0.15168209
0.42310092 0.032827482 0.15521213
0.42779043 0.042390481 0.15993874
0.43222886 0.050443739 0.16555378
0.43598026 0.055461559 0.17081083
0.40032291 -0.0081374161 0.14935757
0.40519387 0.0013310537 0.14897747
0.4101893 0.011713538 0.14928144
0.4127591 0.022935431 0.15057561
0.41759533 0.035886273 0.15483531
0.42229077 0.046692312 0.16009669
0.42727339 0.054803856 0.16651939
0.43041563 0.062606134 0.174539
0.4327032 0.068551019 0.18196745
0.38969433 -0.018393695 0.15221341
0.39377943 -0.010864083 0.14893535
0.42432436 0.069488168 0.17892095
0.42838868 0.07369782 0.18640286
0.42970288 0.079148129 0.19414787
0.37862703 -0.028305588 0.15957478
0.38194776 -0.023207568 0.15567575
0.42511103 0.083487555 0.20195913
0.42659143 0.084793441 0.20949373
0.3708961 -0.032073848 0.16409473
0.41819322 0.087109998 0.20770662
0.42018563 0.087848641 0.21508592
0.35976061 -0.04089589 0.17134513
0.36366516 -0.035631735 0.16809936
0.41401112 0.090157807 0.22519119
0.35220304 -0.044512194 0.17777863
0.40773168 0.090899944 0.23497671
0.34568495 -0.043968916 0.18778871
0.40115052 0.091027379 0.24459743
0.33953342 -0.042761609 0.19789915
0.33387351 -0.038115412 0.19970086
0.39307433 0.08831872 0.25305429
0.33396029 -0.04343304 0.20789553
0.32955754 -0.039312702 0.20868455
0.38469568 0.085086867 0.26181015
0.3317548 -0.044972844 0.21649013
0.32633552 -0.040175989 0.218455
0.37127984 0.080526844 0.26859549
0.3777304 0.081394941 0.26992097
0.32060045 -0.03851071 0.22895086
0.36651719 0.076728299 0.27693838
0.37375978 0.077766187 0.27814284
0.31661558 -0.036656577 0.23932153
0.31265309 -0.03165707 0.24181812
0.35104436 0.069260724 0.28427154
0.35892466 0.071663752 0.28492653
0.31066987 -0.029849574 0.25187328
0.30673006 -0.022393014 0.25575432
0.34691244 0.063620202 0.29136297
0.35431221 0.06694112 0.29204878
0.30991611 -0.028361907 0.2611317
0.30656558 -0.021214079 0.26534775
0.30428252 -0.012256734 0.26991141
0.32708865 0.045568161 0.29397967
0.33473641 0.051701088 0.29692107
0.34253758 0.057493985 0.29710799
0.30672345 -0.019725401 0.2743232
0.30578905 -0.011323739 0.27803627
0.30614078 -0.0020671822 0.28471389
0.30887645 0.0093221106 0.28923705
0.31319949 0.019839242 0.29365969
0.31907696 0.029622085 0.29779696
0.3254849 0.038791895 0.29958248
0.33250168 0.045401558 0.30206054
0.30875677 -0.0010439269 0.29196602
0.31076747 0.0058016591 0.29494718
0.31541571 0.016455144 0.29920959
0.31944761 0.024086274 0.30285981
0.42071223 -0.0026370361 0.15158994
0.42367324 0.0063800812 0.15178321
0.42963243 0.016851954 0.15364532
0.43455058 0.027225651 0.15735495
0.43820623 0.037346505 0.16213438
0.44092318 0.047200881 0.1681881
0.44350094 0.053963836 0.17451198
0.40584108 -0.02223273 0.1528035
0.40901718 -0.014833584 0.15129679
0.41452026 -0.0050253607 0.15074134
0.41545123 0.0041815564 0.14996321
0.44111723 0.059455976 0.17779642
0.44215649 0.066244461 0.18609065
0.44517553 0.07062874 0.19365343
0.3981261 -0.025810834 0.15554534
0.40023223 -0.017445445 0.15090917
0.43745917 0.072162047 0.1901971
0.44019675 0.076409638 0.19854084
0.44290549 0.078531533 0.2072652
0.3873603 -0.034201354 0.16322131
0.39101821 -0.029824115 0.15918608
0.43432361 0.081131414 0.20533156
0.4354459 0.081594624 0.21187586
0.37764904 -0.046641968 0.17500046
0.37870225 -0.039709836 0.1694041
0.42942068 0.084475979 0.22141039
0.36894882 -0.046752721 0.17619082
0.37166911 -0.041766241 0.17194113
0.42322814 0.086104974 0.23209305
0.36126289 -0.048900779 0.18512742
0.41690803 0.087463103 0.2406837
0.41746083 0.086609811 0.2462147
0.35450459 -0.0491657 0.19376749
0.40679196 0.088888712 0.2487054
0.41117609 0.087185964 0.25206581
0.34746289 -0.049841832 0.20358944
0.40115345 0.085514441 0.26013729
0.40723634 0.084626071 0.26056609
0.34025088 -0.049700744 0.21359144
0.3944774 0.082343124 0.26902243
0.33518812 -0.049568012 0.22277029
0.33062693 -0.047086537 0.22454379
0.38635141 0.079007171 0.27708679
0.32740581 -0.04780183 0.23337796
0.37074047 0.074452005 0.28523096
0.3783541 0.075060599 0.28504679
0.32212734 -0.044130847 0.24463627
0.36767483 0.069858156 0.29303446
0.3743906 0.071507633 0.29187697
0.31977001 -0.042209059 0.25277957
0.31616497 -0.038405877 0.25764355
0.35273021 0.061200075 0.30011609
0.36030006 0.063954577 0.29963368
0.31427026 -0.034839127 0.26647663
0.31192631 -0.029462751 0.27224818
0.34077087 0.050064761 0.30491138
0.34914508 0.054913506 0.305787
0.35774598 0.058507048 0.30602995
0.31123188 -0.025950488 0.27957034
0.31021854 -0.018268287 0.28660309
0.30916092 -0.0093110502 0.2896879
0.32359666 0.029663257 0.30534694
0.3303498 0.035011627 0.30937922
0.33829048 0.042966433 0.30999666
0.34628144 0.047887653 0.31142387
0.31276482 -0.016457245 0.29358315
0.3121011 -0.0080131181 0.29617158
0.31468949 0.0019512475 0.30186212
0.31874484 0.012188554 0.30577835
0.3239727 0.022600986 0.30915353
0.32965231 0.029505968 0.31221107
0.42548928 -0.018167406 0.15401906
0.42735794 -0.0094906949 0.15395509
0.4337908 0.00078515708 0.15499392
0.43972951 0.011189792 0.15710488
0.4442482 0.021870028 0.16072936
0.44829044 0.03195852 0.16566037
0.45079789 0.041697815 0.17169127
0.45247436 0.051196225 0.17921932
0.45603919 0.055368457 0.18596083
0.41288939 -0.028266899 0.15623516
0.41851705 -0.020635027 0.15396817
0.42057237 -0.011909261 0.15263422
0.44924188 0.057551805 0.18224016
0.45227104 0.061618842 0.18918087
0.45252708 0.068131156 0.19707587
0.40552345 -0.033448294 0.16044617
0.44997904 0.073449597 0.20364629
0.44844198 0.075539798 0.20995961
0.39581349 -0.039893948 0.16817553
0.40041679 -0.03673093 0.16462387
0.44411954 0.077385254 0.21664211
0.38313177 -0.050429769 0.17742847
0.38692161 -0.045589127 0.17430395
0.43809858 0.079813115 0.22776639
0.37703791 -0.052330129 0.18212974
0.43204188 0.081442773 0.23775238
0.43200344 0.080900438 0.24462639
0.36956653 -0.054397665 0.19050834
0.42516789 0.083840594 0.24264288
0.42606342 0.083004266 0.24885419
0.36254418 -0.055735417 0.19945922
0.41941538 0.083678775 0.25812095
0.35530716 -0.056102745 0.20912282
0.41175914 0.081747763 0.26687565
0.34816501 -0.055812031 0.21929301
0.40127552 0.078905448 0.27641618
0.4068101 0.078996956 0.27494287
0.34231329 -0.055188511 0.22858244
0.33943868 -0.054406196 0.23283705
0.39553532 0.075847477 0.28395885
0.33545607 -0.054489851 0.23885365
0.38733396 0.072004177 0.29181463
0.32919133 -0.052348338 0.24944748
0.37464508 0.06507013 0.30126485
0.38023499 0.067727588 0.29825708
0.32570106 -0.049046628 0.25922164
0.32266665 -0.045540608 0.26431364
0.36878645 0.060500473 0.30636817
0.3205741 -0.041774925 0.27261832
0.31835476 -0.036511164 0.27868909
0.35653576 0.051124036 0.31364149
0.36267579 0.055297732 0.31130102
0.31806225 -0.032555286 0.28553995
0.31676236 -0.026396647 0.29264322
0.33708 0.033408865 0.31582466
0.34434271 0.038163453 0.31798458
0.35120404 0.045124881 0.3170774
0.31733304 -0.021940473 0.29747164
0.31862891 -0.014054235 0.30305952
0.32167664 -0.0039657578 0.30907017
0.32553121 0.0063793212 0.31352198
0.33054453 0.016622446 0.31692708
0.33626091 0.026580021 0.31895414
0.34228238 0.031636447 0.32157302
0.45307332 0.00585825 0.16350131
0.45594457 0.014662091 0.16642463
0.45918533 0.021615554 0.17002681
0.43172818 -0.022887304 0.15710935
0.43704298 -0.015200432 0.15737665
0.44334853 -0.0047183149 0.15893529
0.44767427 0.0056099072 0.16090052
0.45117015 0.017524768 0.16434537
0.45690891 0.027341329 0.17031635
0.45998412 0.035897832 0.17610922
0.46174914 0.045908131 0.18349385
0.46237555 0.052683048 0.18961805
0.42106187 -0.033653535 0.16103449
0.42685494 -0.02875698 0.15927622
0.4620496 0.057582457 0.19445142
0.46092239 0.063223377 0.20154205
0.41227224 -0.045273796 0.17150483
0.41368181 -0.039393608 0.16618109
0.45831633 0.06752336 0.21066174
0.45427811 0.070786923 0.2148851
0.40391007 -0.046602577 0.1735028
0.40573347 -0.040464699 0.16801418
0.45241007 0.071643859 0.22278239
0.39013234 -0.054662783 0.18170354
0.39544579 -0.052757841 0.17898613
0.4465552 0.074771106 0.23386475
0.38597748 -0.057856299 0.18809251
0.39314145 -0.05748903 0.18809472
0.44126096 0.076465629 0.24279562
0.44136006 0.077602983 0.24822846
0.37788677 -0.060356185 0.19627988
0.43473643 0.078178219 0.25519463
0.37050205 -0.061869323 0.2049184
0.42818478 0.078792937 0.26437771
0.36329263 -0.062195633 0.21457168
0.4204357 0.077123158 0.27326691
0.35642833 -0.061895218 0.22481285
0.40520963 0.07516592 0.28331226
0.4123717 0.074344262 0.28217521
0.34996194 -0.061071828 0.23451175
0.34830683 -0.060404681 0.23843454
0.40369686 0.071733236 0.2908192
0.40937155 0.071626231 0.28863364
0.3443414 -0.062191743 0.24487767
0.34128582 -0.059191767 0.24258035
0.39609656 0.067795314 0.29834259
0.34249589 -0.064254433 0.25162289
0.33683535 -0.059542228 0.25450885
0.38082826 0.06114392 0.30676916
0.38767725 0.062779665 0.30583254
0.33190703 -0.055995516 0.26557484
0.32769853 -0.050805062 0.26961187
0.37729973 0.056148186 0.31290466
0.38523161 0.057985291 0.31284958
0.33199102 -0.055688061 0.27420536
0.32778117 -0.04854624 0.27867639
0.32427529 -0.042212997 0.28384519
0.36410418 0.046377912 0.32069126
0.37030068 0.050268166 0.31829622
0.3283824 -0.046189323 0.28738996
0.32500571 -0.039288558 0.29198998
0.32291076 -0.032457802 0.29769501
0.35213381 0.034635477 0.32557142
0.35873169 0.040375248 0.32408535
0.32684255 -0.038144972 0.30154955
0.32405928 -0.02949255 0.30404359
0.32526508 -0.020086434 0.31040949
0.3286902 -0.0099345818 0.31596687
0.33231771 0.00040397793 0.32092327
0.33675689 0.010754585 0.32514963
0.3421635 0.020669281 0.32751966
0.34857866 0.028697982 0.32823551
0.45823625 0.00051198155 0.16673405
0.46261218 0.010162733 0.17051844
0.46551043 0.017194726 0.17434019
0.43859422 -0.026445333 0.16336116
0.44489074 -0.021347571 0.16417359
0.45221341 -0.010799564 0.16434404
0.45716217 -0.0049793385 0.16646896
0.46641985 0.022154965 0.17700842
0.46828005 0.030107781 0.18236217
0.46967152 0.039819986 0.19019686
0.47016567 0.046567447 0.19540001
0.42831281 -0.038048208 0.16817516
0.43503407 -0.033164095 0.16694623
0.47027484 0.051161245 0.20061913
0.46860343 0.056277782 0.20765994
0.4176577 -0.04923569 0.17502706
0.42305845 -0.044559013 0.17229486
0.46537101 0.060150608 0.21659119
0.41217095 -0.053200111 0.17853306
0.46484134 0.061294429 0.22460222
0.46055371 0.065735169 0.22876121
0.40107188 -0.064196952 0.18576278
0.40341768 -0.058385052 0.18685153
0.45530871 0.068987146 0.2402389
0.45716479 0.073194906 0.24632485
0.39358869 -0.064615734 0.19297801
0.39833599 -0.059265792 0.1914553
0.44974145 0.071294717 0.24597612
0.45041013 0.074614264 0.25104538
0.38588041 -0.066954151 0.20221257
0.44316071 0.073490098 0.26188105
0.37910181 -0.068020254 0.21070407
0.43699586 0.073193289 0.26988521
0.37165371 -0.068397827 0.22053143
0.42907831 0.071615465 0.27942634
0.36481771 -0.06810879 0.23064213
0.42087281 0.068973683 0.28815994
0.35832462 -0.067392394 0.24058586
0.40895641 0.06720075 0.29744419
0.41482899 0.066301391 0.29680094
0.3511849 -0.06814532 0.24989636
0.35494897 -0.066240609 0.24599448
0.40498629 0.063777283 0.30532581
0.41242731 0.06379009 0.30477989
0.34654215 -0.069240183 0.25727326
0.34286866 -0.066423111 0.26164225
0.3965984 0.059407696 0.31312126
0.33920744 -0.063521914 0.27137065
0.3848097 0.051270463 0.3207342
0.3905462 0.05469498 0.31849414
0.33723199 -0.060352292 0.27854109
0.33476403 -0.05607798 0.28456321
0.37035891 0.042670995 0.32703668
0.37757945 0.044979274 0.32594392
0.33269757 -0.052027632 0.29244384
0.33160254 -0.046468079 0.29939288
0.33575994 -0.043219734 0.30766407
0.36087468 0.030036256 0.33412451
0.36654171 0.036038958 0.33224958
0.32984525 -0.041309368 0.30447727
0.33084577 -0.036148958 0.31073883
0.33272198 -0.026246727 0.31800589
0.33580038 -0.015995599 0.32370129
0.33954418 -0.0058277845 0.32834065
0.3439084 0.0044877157 0.33290768
0.34937742 0.014578223 0.33526719
0.3564859 0.024528757 0.3349387
0.46576977 -0.016949207 0.17060186
0.46844992 -0.0073961839 0.17357281
0.47057387 0.0042276829 0.17686203
0.4707993 0.013142884 0.17824398
0.44949916 -0.034428772 0.16996463
0.45461965 -0.027252223 0.16811763
0.45987129 -0.016445145 0.16897912
0.46447766 -0.0058955401 0.17313735
0.46995071 0.0034378693 0.17801744
0.47435462 0.014460184 0.18314277
0.47722948 0.024289288 0.18738684
0.47951615 0.034105778 0.19427931
0.48044348 0.041204192 0.20136048
0.43851769 -0.045523115 0.17536525
0.44261414 -0.039145514 0.17229114
0.47917762 0.046273656 0.20690998
0.47793725 0.050236553 0.21352312
0.42350802 -0.053362686 0.17925999
0.43107057 -0.050623778 0.17811446
0.47404367 0.054251395 0.22276405
0.41485381 -0.070202522 0.18467169
0.42052063 -0.058821492 0.1854133
0.42888525 -0.056874961 0.18457019
0.47089025 0.056796752 0.22929007
0.46862492 0.059029981 0.23518972
0.40973437 -0.069654703 0.18940558
0.41195551 -0.062959023 0.1928547
0.46310744 0.062793471 0.24654993
0.46589646 0.069122612 0.24957138
0.40248993 -0.070659749 0.1995267
0.40549535 -0.06483601 0.19889818
0.45841703 0.062876172 0.25545818
0.45919222 0.067684501 0.25821754
0.39442602 -0.071818516 0.20927532
0.39888605 -0.06777636 0.21053676
0.44655204 0.06445121 0.26684228
0.45220083 0.066561356 0.26653072
0.38674054 -0.074804261 0.21665695
0.44372192 0.064498454 0.26964512
0.44574207 0.067511439 0.27525091
0.3800368 -0.074871384 0.22645098
0.43770158 0.066183016 0.28560784
0.37298346 -0.0745342 0.23660374
0.42945746 0.063343957 0.29449388
0.36659741 -0.07382831 0.24632351
0.42226338 0.061626166 0.30338326
0.35941055 -0.075175308 0.25526556
0.41058651 0.059731737 0.31346038
0.41646171 0.05999881 0.31161031
0.35341176 -0.075592384 0.26271337
0.35163224 -0.073214963 0.26916248
0.40596539 0.055494919 0.31997964
0.34825149 -0.069077045 0.27694955
0.35047472 -0.066286154 0.28491941
0.39339364 0.044142589 0.32745689
0.39819667 0.05010625 0.32464153
0.34303981 -0.064226896 0.28266174
0.34373859 -0.062604554 0.29043731
0.38389724 0.033982478 0.33448571
0.3856521 0.039428852 0.33046812
0.34063348 -0.057636004 0.29795778
0.3406229 -0.051690944 0.305374
0.34316739 -0.042672012 0.31259927
0.34976733 -0.033325147 0.31682658
0.35374612 -0.028074805 0.32037976
0.36138925 -0.0087593421 0.32967961
0.36262843 -0.0034288988 0.33093905
0.36987919 0.023200862 0.34038526
0.3749004 0.030177303 0.33848903
0.33859617 -0.038086526 0.31327927
0.34253824 -0.030129921 0.31989098
0.34586272 -0.022283293 0.32772088
0.35026914 -0.011574328 0.3325322
0.35517731 -0.00071668625 0.33372849
0.36067796 0.0087961704 0.33670977
0.36578387 0.018459611 0.33961189
0.47163323 -0.021350831 0.17326307
0.47654828 -0.011687778 0.17611004
0.47994122 -0.0015804172 0.18135718
0.48371574 0.0073738545 0.18700841
0.48792672 0.014079653 0.19157112
0.45651585 -0.039686151 0.17514741
0.46302423 -0.032962814 0.17417052
0.46831828 -0.026788291 0.1733804
0.48079646 0.011866599 0.18710342
0.48598662 0.019722655 0.19219989
0.48854557 0.028403856 0.19933878
0.48813978 0.03580939 0.20648064
0.44602922 -0.051298134 0.18020496
0.45198706 -0.045780994 0.17795315
0.48743954 0.040206082 0.21297045
0.48528409 0.044667214 0.21906203
0.43895674 -0.056669142 0.1841595
0.48194143 0.048284158 0.22816275
0.42199004 -0.076259971 0.18866757
0.42859629 -0.063533679 0.19152622
0.43368343 -0.060261741 0.18810314
0.47939986 0.049968824 0.2362729
0.47569662 0.052961238 0.24087441
0.41728216 -0.076120146 0.19540234
0.42007947 -0.06865301 0.19811836
0.47081357 0.056435563 0.25117624
0.47426724 0.064634308 0.25579539
0.41029066 -0.075896464 0.2035809
0.41270408 -0.070169896 0.20783567
0.46569028 0.05731523 0.26095825
0.46724892 0.062715605 0.26362544
0.40189803 -0.076599523 0.21485205
0.40576005 -0.070938975 0.21544744
0.45731682 0.055977046 0.27019513
0.45927703 0.062571824 0.27114725
0.39524177 -0.080250844 0.22249612
0.45189828 0.056064695 0.27656648
0.45263818 0.060821079 0.2812531
0.38785547 -0.081195161 0.23197173
0.44625896 0.060203701 0.29144782
0.38085675 -0.080834277 0.24208957
0.43791971 0.058163427 0.30031323
0.3744531 -0.080110937 0.25192231
0.43050489 0.05667866 0.30964395
0.36732703 -0.081563607 0.26046851
0.41922 0.052782081 0.32183617
0.42325586 0.055068061 0.31812912
0.3615799 -0.081766404 0.26883185
0.35936147 -0.078012347 0.27481213
0.41435251 0.050216995 0.32610592
0.35831103 -0.073420011 0.28165168
0.35716441 -0.06849651 0.28772748
0.40037444 0.038517348 0.33297032
0.40662235 0.044275127 0.33114544
0.35310507 -0.064879052 0.29636276
0.35414723 -0.061991375 0.30378965
0.39069942 0.028351285 0.33748403
0.39693496 0.032756008 0.33494419
0.34835461 -0.060503766 0.30209631
0.34942529 -0.057318807 0.30956769
0.35231405 -0.046970926 0.31614304
0.35815635 -0.036780074 0.31818095
0.35878715 -0.030258328 0.32247344
0.36492357 -0.011662908 0.33139455
0.36957845 -0.0061723515 0.3323043
0.37268203 0.0012582242 0.33937654
0.3783285 0.014666751 0.34397116
0.3834019 0.02292978 0.34162185
0.35394362 -0.028734498 0.33141711
0.35947546 -0.015662096 0.33680823
0.36926946 0.0055014491 0.34075618
0.37250561 0.012521677 0.34380692
0.35265282 -0.027559161 0.34024099
0.35526237 -0.021735497 0.34249511
0.48255107 -0.027714878 0.18003257
0.48802936 -0.018780939 0.18168736
0.49085364 -0.0087787285 0.18789048
0.49307415 0.0011145771 0.19380869
0.49390939 0.0074840412 0.19561183
0.47153038 -0.039837111 0.1839902
0.47826719 -0.0333592 0.18204229
0.49543372 0.0028217286 0.19713032
0.49616167 0.011232167 0.20039666
0.49650913 0.020691797 0.20916498
0.49496135 0.02706337 0.21370344
0.45480785 -0.056490883 0.18849042
0.46126437 -0.051201552 0.18703221
0.46771985 -0.045860581 0.18588489
0.49648792 0.023890734 0.21588542
0.49426875 0.029837519 0.22147693
0.45024326 -0.061319403 0.19264603
0.45731118 -0.057880744 0.19110489
0.49253368 0.033556104 0.22948411
0.48988444 0.037062466 0.23473096
0.43148163 -0.084031194 0.19625242
0.43797833 -0.06978967 0.20094655
0.4431217 -0.066687562 0.19759813
0.48552313 0.041030221 0.24520059
0.48193553 0.044526041 0.25005412
0.42769197 -0.083893649 0.2020781
0.43062833 -0.074969597 0.20657469
0.48400927 0.041718245 0.25283036
0.48032549 0.045711704 0.25718606
0.48432755 0.058426484 0.26412794
0.42474097 -0.074476808 0.21636102
0.47557789 0.049307361 0.26789275
0.47872913 0.056220137 0.26980191
0.41169247 -0.084535107 0.22345753
0.41668028 -0.075883128 0.22680102
0.41767874 -0.065850064 0.23100179
0.46629876 0.044854388 0.27616423
0.40511009 -0.088482805 0.22910899
0.41212216 -0.075166836 0.23108239
0.41452536 -0.067291349 0.23388512
0.45159358 0.030408546 0.27787995
0.45452294 0.036143497 0.28214172
0.4588061 0.044097811 0.28668141
0.46311978 0.054163411 0.28995979
0.39776182 -0.089529186 0.2387016
0.4567858 0.05449681 0.29921705
0.39073029 -0.089032874 0.24903056
0.4485727 0.051616386 0.3078759
0.38453963 -0.088309661 0.2584928
0.44109443 0.050177127 0.31694937
0.37718055 -0.08974763 0.26761404
0.42940259 0.045852989 0.3286683
0.43401396 0.04799889 0.32476524
0.3717266 -0.088619746 0.27616179
0.36915225 -0.086136617 0.28185451
0.42443547 0.042606309 0.33315545
0.36604536 -0.082499653 0.29041708
0.41084486 0.033819892 0.34285513
0.41567817 0.036957704 0.34001955
0.36433038 -0.079016216 0.29724616
0.36374205 -0.073450223 0.30260038
0.36392045 -0.06646052 0.31015649
0.39859468 0.020563394 0.34670001
0.40520304 0.028308459 0.34580085
0.36308029 -0.061843436 0.3147743
0.36526325 -0.054207865 0.32040811
0.3664926 -0.045754805 0.32648805
0.37944537 -0.011825137 0.34201533
0.38366097 -0.0036841854 0.34453323
0.38960013 0.0069664121 0.34683242
0.39561027 0.014909551 0.34711307
0.36316359 -0.041679371 0.33554515
0.3602142 -0.039692178 0.34099123
0.36919177 -0.020887412 0.34756568
0.37435728 -0.017275952 0.34441268
0.35807192 -0.036136612 0.34869343
0.3624649 -0.025868259 0.35269901
0.4888157 -0.032046791 0.18503092
0.49410787 -0.023413137 0.1869984
0.49594885 -0.013884865 0.19268423
0.49457157 -0.0034760609 0.19526546
0.47825432 -0.043330505 0.18940817
0.48399857 -0.03788244 0.18713805
0.4981083 -0.010778368 0.19804628
0.49912721 -0.0030411333 0.20022026
0.50164211 0.0065770373 0.20605493
0.50135344 0.014181413 0.21355389
0.46714768 -0.054723315 0.19267121
0.47360343 -0.049256627 0.19131514
0.50017971 0.018292464 0.220819
0.49803454 0.023352981 0.22645871
0.45617148 -0.063865691 0.19846991
0.46258685 -0.061060164 0.19703157
0.49637976 0.026981331 0.23525596
0.49330586 0.031589121 0.24015309
0.43503091 -0.086190298 0.19990441
0.44379142 -0.073629834 0.2064921
0.44932666 -0.070340261 0.2032166
0.49086797 0.034301922 0.24879348
0.43417236 -0.088571653 0.20623817
0.43698815 -0.078698486 0.21177861
0.48743403 0.03649345 0.25909707
0.48352313 0.040580273 0.26226443
0.4894087 0.054433353 0.26925611
0.42601675 -0.090717077 0.21619858
0.43135706 -0.08125975 0.21930601
0.48059261 0.043169983 0.27233875
0.48525375 0.052400723 0.27565086
0.41915458 -0.091083452 0.22573484
0.42017809 -0.080468789 0.22493744
0.474287 0.042864919 0.28046569
0.47810903 0.052436702 0.28605056
0.41105756 -0.094128355 0.23309714
0.46440399 0.043962017 0.28727269
0.47053921 0.050741829 0.29433611
0.40384978 -0.094625823 0.2429603
0.46336067 0.050515145 0.30407214
0.39706323 -0.094120607 0.25323442
0.45503443 0.047611736 0.3126772
0.39055678 -0.093352087 0.26294446
0.44765103 0.046093583 0.32159007
0.3832238 -0.094641328 0.27179
0.43619993 0.041294523 0.33368322
0.44013441 0.043389253 0.32938483
0.37788716 -0.09346287 0.2812548
0.37443832 -0.090555109 0.28624734
0.43102273 0.038676985 0.33781582
0.37247726 -0.087949231 0.2944065
0.41768914 0.028709188 0.3477667
0.42225707 0.032873355 0.34450984
0.36986244 -0.083397083 0.30166551
0.36939451 -0.078219637 0.30843315
0.36887592 -0.070545986 0.31457925
0.40594953 0.016514502 0.35222369
0.4116244 0.023529872 0.35020408
0.37060621 -0.066850916 0.31946564
0.37135404 -0.05838703 0.32511723
0.37151352 -0.051158965 0.33127886
0.38541153 -0.014715374 0.34760034
0.39000499 -0.0082378313 0.34908053
0.39571357 0.0023540333 0.35115236
0.40167022 0.0114014 0.35226232
0.36851287 -0.047347944 0.34027293
0.37261277 -0.022872418 0.35205874
0.3797268 -0.02111423 0.35132766
0.36609784 -0.046451043 0.34843153
0.36193499 -0.04288014 0.35238516
0.36959571 -0.026994959 0.35852888
0.37790534 -0.026569992 0.35789058
0.36081231 -0.040380113 0.36144537
0.36366343 -0.033349633 0.36423016
0.49784598 -0.038161986 0.19144008
0.50200856 -0.029413484 0.19339992
0.50373071 -0.021917582 0.19875765
0.5115822 -0.011145279 0.2073328
0.51380426 -0.0067109093 0.2099822
0.48618689 -0.049032867 0.19562113
0.49230108 -0.043187849 0.19310592
0.50399643 -0.01705499 0.20268196
0.50623405 -0.00879848 0.20570265
0.50930089 0.00047682971 0.2130363
0.50772136 0.0066307858 0.2198783
0.47532737 -0.059791408 0.20022123
0.48139116 -0.054917894 0.19765669
0.50652778 0.010659389 0.22737211
0.50380844 0.016056046 0.23291029
0.46457168 -0.069967553 0.20622483
0.46957546 -0.065553591 0.20323387
0.50679541 0.011426568 0.23663175
0.50272036 0.019533955 0.24111935
0.50047606 0.024420954 0.2473449
0.45289704 -0.079909794 0.21306078
0.45775938 -0.076287508 0.20946832
0.4985407 0.027186736 0.25428152
0.4388499 -0.094073154 0.21428861
0.44698334 -0.082218975 0.21855317
0.49339399 0.030512638 0.26569557
0.48659772 0.03493163 0.26816696
0.43513152 -0.097046115 0.22141629
0.43819574 -0.087327369 0.22284406
0.49020785 0.03101477 0.27244484
0.48780254 0.034517415 0.27772892
0.49234307 0.047995701 0.28290889
0.49519774 0.051080547 0.28576076
0.42564785 -0.10092058 0.22997931
0.48367804 0.039686255 0.28538072
0.48650604 0.046370514 0.29096106
0.49281237 0.048659727 0.29377714
0.41894776 -0.10142601 0.23875339
0.47998646 0.047761358 0.30139104
0.41199291 -0.10144177 0.24865115
0.47230235 0.04543899 0.31030244
0.40516213 -0.10082423 0.25899282
0.46400976 0.042542532 0.31909263
0.39869466 -0.10009991 0.26861337
0.45617536 0.040090196 0.32763982
0.39163873 -0.1013419 0.27759904
0.44631547 0.034734368 0.33853826
0.44887602 0.037361994 0.33379865
0.38509798 -0.099939525 0.28797197
0.37936991 -0.095208414 0.29095325
0.43945408 0.032945976 0.3437658
0.3840493 -0.099436298 0.29508018
0.38058582 -0.094029576 0.30070823
0.42572778 0.022869587 0.35345295
0.43056604 0.027294844 0.35080013
0.37904936 -0.089551039 0.30775157
0.3778137 -0.084374242 0.31389219
0.37777448 -0.077938095 0.32092708
0.41443267 0.010180995 0.35771403
0.42029595 0.01743938 0.35540706
0.37788048 -0.072932079 0.32507756
0.37952507 -0.064536214 0.33136234
0.38074881 -0.057426386 0.33720198
0.39434573 -0.020945773 0.35370934
0.39821032 -0.014016561 0.35522112
0.40406957 -0.0034806654 0.35758474
0.40975308 0.0052016601 0.35798553
0.37624258 -0.056066666 0.34521168
0.38156801 -0.049343169 0.35280013
0.38765365 -0.035273373 0.35912365
0.38869965 -0.024612874 0.358854
0.37005433 -0.053064931 0.35531113
0.37399748 -0.048907049 0.36130565
0.37748247 -0.034887902 0.36657736
0.38178807 -0.028648362 0.36416379
0.36705282 -0.052244753 0.3620986
0.36545229 -0.047666609 0.36806124
0.37027463 -0.037214443 0.37179959
0.50492477 -0.053786863 0.19661584
0.50681198 -0.045749385 0.19394565
0.51230925 -0.034826204 0.1971851
0.51361364 -0.025765285 0.20532435
0.51795489 -0.014857955 0.20907101
0.52030623 -0.0092152581 0.21350533
0.49632099 -0.054713514 0.20042402
0.4974525 -0.048360437 0.19591559
0.50991976 -0.021407939 0.20615652
0.51784742 -0.0040361434 0.22021061
0.51368958 0.00055541098 0.22525451
0.48348543 -0.065631092 0.20700225
0.48945102 -0.060392197 0.20429125
0.51778543 -0.003705807 0.22938421
0.51347464 0.0033560544 0.23389962
0.47303334 -0.077387989 0.21103264
0.47821233 -0.071345225 0.2083151
0.51216376 0.0074555129 0.24093565
0.51092547 0.013044596 0.24676001
0.50992501 0.017723501 0.25401282
0.4621866 -0.086565815 0.2176002
0.46605238 -0.082565449 0.21367972
0.5073024 0.021178626 0.26033163
0.45420614 -0.090645604 0.22376196
0.5019114 0.024901547 0.2714659
0.50107098 0.024923421 0.27786332
0.44268614 -0.1012104 0.2278771
0.44679272 -0.094234288 0.22516987
0.49705526 0.026464626 0.27674463
0.49642587 0.029400758 0.28402445
0.49730384 0.043354467 0.28959846
0.49625 0.048110828 0.29172954
0.43420008 -0.10647367 0.23520444
0.49195206 0.037091613 0.28846857
0.49403501 0.039928712 0.29647854
0.49368265 0.047460102 0.29578289
0.42701897 -0.10816498 0.24449934
0.48820761 0.04150001 0.30707839
0.42038712 -0.10782094 0.25452754
0.48079672 0.039471909 0.31625295
0.41394314 -0.10645502 0.2650651
0.47225583 0.036059126 0.32500294
0.40713468 -0.10619254 0.27457184
0.46387142 0.028353602 0.3357878
0.46384001 0.033254221 0.33165583
0.400069 -0.10678144 0.28379583
0.45577297 0.028449133 0.34105986
0.45605329 0.032930657 0.33579168
0.39382893 -0.10534817 0.29356471
0.39405742 -0.10474518 0.30057365
0.44753546 0.02579239 0.34949601
0.38949394 -0.099360153 0.30624104
0.39172077 -0.095744789 0.31502092
0.43505219 0.015665293 0.35903847
0.43937734 0.021022014 0.35585392
0.38482937 -0.093117788 0.31134015
0.38736284 -0.089652285 0.31850785
0.38827097 -0.082177676 0.32708129
0.42282414 0.0021140128 0.36201873
0.4290317 0.011032656 0.36019558
0.38625747 -0.076759338 0.3302094
0.38814366 -0.070675112 0.33737814
0.3866981 -0.062845424 0.34308243
0.4002451 -0.02485434 0.35868916
0.40693778 -0.019839488 0.36143786
0.41375291 -0.0094797164 0.36206684
0.41670361 -0.00116992 0.36154735
0.38657615 -0.059981983 0.35026956
0.38657975 -0.051891379 0.35807726
0.39107472 -0.040587232 0.36284816
0.39791322 -0.031041071 0.36276037
0.40561298 -0.026670381 0.36488429
0.3794843 -0.047801472 0.3635824
0.38169292 -0.04274337 0.36542615
0.37303028 -0.048661292 0.37002996
0.37581515 -0.042646185 0.37203979
0.51161456 -0.060115051 0.19891845
0.5170396 -0.050838239 0.19665545
0.52185196 -0.04086066 0.20166326
0.52267087 -0.03063374 0.20910627
0.52785766 -0.020390116 0.21262851
0.52852494 -0.014165662 0.21859276
0.50220358 -0.070904896 0.20944497
0.5032652 -0.062633082 0.20387942
0.5256297 -0.010328934 0.22635658
0.49339846 -0.072905555 0.21170013
0.49460194 -0.064616337 0.20646989
0.52380222 -0.0080594346 0.23355514
0.5220201 -0.0022334754 0.23929723
0.52526546 0.0019920468 0.24817745
0.48192599 -0.085042514 0.21595186
0.48477912 -0.075881287 0.2119102
0.51964688 0.008552514 0.25244671
0.51943916 0.011564635 0.25993493
0.47157317 -0.09317942 0.22277924
0.47407067 -0.088849768 0.21829459
0.51577073 0.015272051 0.2660476
0.46109763 -0.10551104 0.23402143
0.46164191 -0.097412989 0.22894549
0.5100317 0.018901244 0.27769011
0.4520531 -0.10694148 0.23386215
0.50457442 0.023211733 0.28936175
0.50063848 0.031912312 0.29382515
0.44209394 -0.11218337 0.24166003
0.50716662 0.026042342 0.29929563
0.50157458 0.032433107 0.30260095
0.43582103 -0.11293782 0.25100446
0.49612999 0.034050219 0.31256545
0.42925757 -0.11142841 0.26126149
0.48814839 0.032027796 0.32121766
0.42316517 -0.1092422 0.27191338
0.48050293 0.021782234 0.33287674
0.47873524 0.02932366 0.32813683
0.41640109 -0.10930274 0.28138432
0.47046906 0.022260383 0.33738607
0.47144577 0.028069124 0.33196676
0.40935636 -0.11009268 0.29066789
0.41119084 -0.11148045 0.29863089
0.46246833 0.020594172 0.34538624
0.40039256 -0.10810591 0.29609188
0.40452927 -0.10835744 0.30391082
0.45476454 0.017665364 0.35422614
0.3993611 -0.10271566 0.31145468
0.40054703 -0.098737352 0.31909338
0.44443503 0.0079550967 0.36262006
0.44663227 0.015621647 0.35869414
0.39686355 -0.092894346 0.32315856
0.3981261 -0.086299434 0.33197826
0.42932898 -0.013657674 0.36716229
0.43185759 -0.0043420568 0.36510116
0.43589646 0.005311735 0.36319834
0.39705703 -0.081562802 0.33745322
0.3951391 -0.076295823 0.34410533
0.39054546 -0.068438828 0.34776908
0.41526917 -0.024224617 0.36834696
0.42199379 -0.015930913 0.36656573
0.39742479 -0.074979454 0.35319996
0.39328986 -0.067125492 0.3561227
0.39458913 -0.057579234 0.36437327
0.39905292 -0.047071807 0.36932051
0.40500945 -0.036539197 0.37019041
0.41112936 -0.029728927 0.36980107
0.51628131 -0.063843183 0.20028977
0.5236935 -0.054231592 0.1991103
0.52714032 -0.043738119 0.20506462
0.52936858 -0.033943541 0.21142757
0.53395349 -0.023650244 0.2156986
0.53366059 -0.017902225 0.22157744
0.5037353 -0.071944565 0.20978913
0.50793576 -0.06924504 0.20669837
0.5302279 -0.014022134 0.23044547
0.52903712 -0.01033958 0.23661198
0.49803585 -0.076773867 0.2132377
0.52823472 -0.0056463107 0.2414775
0.52760553 0.0010957345 0.24924824
0.48649228 -0.088135973 0.21828309
0.49195999 -0.082381174 0.21560532
0.52599329 0.0056411028 0.25602838
0.52373081 0.0088918805 0.26264775
0.47587246 -0.096235573 0.22511809
0.48044574 -0.093440108 0.22166997
0.52049041 0.011739172 0.27003095
0.46179619 -0.106143 0.2345015
0.4674398 -0.10097533 0.23212807
0.51518595 0.014813885 0.28063402
0.45692042 -0.11035402 0.23774607
0.51208639 0.016017593 0.28694111
0.50932175 0.019228876 0.29322228
0.4480485 -0.11504489 0.2456834
0.50837272 0.024529882 0.30042526
0.50620943 0.027866319 0.30620506
0.44117001 -0.11518188 0.25509921
0.50074929 0.029263057 0.31549156
0.43511006 -0.11331949 0.26548922
0.49249279 0.026776478 0.32446116
0.42956701 -0.11079139 0.27591491
0.42758 -0.11038943 0.28004414
0.48216864 0.020512149 0.33292904
0.48711649 0.023574166 0.32928547
0.42246541 -0.11059957 0.28585377
0.47483531 0.016824596 0.33952904
0.41531831 -0.11158398 0.2952902
0.46711305 0.014825046 0.34835052
0.40912777 -0.10937075 0.30618903
0.45884889 0.01192487 0.35723439
0.40644303 -0.10502303 0.31410265
0.40510097 -0.099918164 0.32137224
0.44888997 0.0042887926 0.3637456
0.45428547 0.0095393732 0.36080569
0.40435264 -0.095016912 0.32721516
0.40347752 -0.089878738 0.33386847
0.43194303 -0.01530499 0.36825836
0.43795902 -0.0078356117 0.36699983
0.44287258 -0.0014603958 0.36594611
0.40138033 -0.084854946 0.34067053
0.40064836 -0.080026641 0.34779423
0.42045662 -0.02780477 0.37191144
0.42589018 -0.02141092 0.37058884
0.39895239 -0.075614281 0.35390472
0.3985635 -0.071156412 0.35945711
0.39947355 -0.060837306 0.36839485
0.40379328 -0.050575323 0.37277362
0.41050449 -0.039933875 0.37387571
0.41599771 -0.03279043 0.37305376
