# .PCD v0.7 - Point Cloud Data file format
VERSION 0.7
FIELDS x y z
SIZE 4 4 4
TYPE F F F
COUNT 1 1 1
WIDTH 519
HEIGHT 1
VIEWPOINT 0 0 0 1 0 0 0
POINTS 519
DATA ascii
0.026858337 0.068328895 0.00063868612
0.025416672 0.070652686 0
0.023673616 0.069234632 0.004192695
0.02570834 0.067585833 0.0031358898
0.019687504 0.07167194 0.0046686158
0.022609383 0.0711684 0.0028783046
0.023500003 0.065704502 0.0086151548
0.025236115 0.064619891 0.0068764836
0.013500005 0.069208838 0.0088168122
0.018989995 0.069225095 0.0081260055
0.022410423 0.067879118 0.0070694797
0.024625003 0.066092007 0.0066537522
0.015750006 0.070377998 0.0083140023
0.01804167 0.070835255 0.0067032538
0.011749998 0.065711506 0.012820404
0.020250008 0.065710492 0.012392752
0.023137502 0.064037658 0.011242963
0.011875004 0.066875003 0.011319403
0.01425001 0.067834161 0.011231769
0.018402085 0.06734813 0.011271387
0.021949999 0.066173606 0.0098109432
0.010750003 0.061845995 0.017183702
0.022875011 0.061838247 0.015294451
0.011562504 0.063648619 0.015623111
0.01372084 0.064876311 0.0159242
0.018627979 0.064912818 0.015686475
0.02170001 0.063231595 0.014545292
0.014900006 0.066333897 0.014329087
0.017166674 0.066230021 0.014030166
0.011458337 0.060953908 0.019739408
0.01275 0.061856665 0.020192835
0.021250002 0.061852001 0.01860955
0.014767863 0.063345633 0.019454759
0.018703133 0.063399039 0.018668633
0.021000005 0.062624 0.018178601
0.010750003 0.057238005 0.023407303
0.01138334 0.058984958 0.023247398
0.013850965 0.060604952 0.023960199
0.016750008 0.061479501 0.024167176
0.016750008 0.062632002 0.021967951
0.011525005 0.056262009 0.027583051
0.012500003 0.057268001 0.029010551
0.024687499 0.057074495 0.028673727
0.012000002 0.058021002 0.025969803
0.014291674 0.059375398 0.028074563
0.0185 0.06071987 0.028101485
0.022305548 0.059140898 0.028081046
0.011650003 0.052848898 0.032698244
0.011875004 0.054596506 0.031045251
0.013041675 0.056010105 0.032305997
0.023729168 0.056645088 0.031758092
0.024499997 0.055376001 0.032898851
0.015266672 0.058559321 0.031683967
0.018365741 0.059256412 0.032146662
0.021750003 0.058355577 0.031842232
0.081412502 0.06413836 0.03266634
0.080223963 0.067914344 0.032023937
0.076916672 0.073254876 0.033184774
0.078738645 0.071803741 0.031943835
0.076625004 0.075280584 0.031828601
0.078000002 0.074896 0.0319876
0.011812508 0.050623752 0.035816878
0.01240626 0.052435882 0.035659138
0.014440484 0.055633567 0.0359951
0.018666677 0.057309113 0.03666909
0.022354171 0.056264929 0.03573481
0.024750002 0.054260008 0.037053801
0.018583335 0.058064841 0.035166398
0.080949076 0.060741924 0.036195427
0.077125005 0.064557754 0.037899125
0.079231255 0.064417072 0.035850242
0.076553576 0.0680319 0.036574543
0.078500003 0.067538537 0.034825325
0.075550005 0.07204283 0.036266975
0.074893519 0.075984575 0.035565652
0.012000002 0.048933007 0.0381504
0.013231486 0.051714741 0.039763972
0.023825005 0.052846111 0.041107878
0.024812505 0.051812999 0.040402327
0.015305556 0.054745756 0.039696019
0.018694445 0.05580359 0.039766561
0.022357143 0.05474972 0.039462991
0.02458334 0.053759329 0.038045369
0.080321431 0.056639113 0.04013877
0.072999999 0.06189651 0.041756503
0.076118059 0.060606442 0.040849935
0.079245538 0.059643589 0.039377201
0.072437502 0.064177193 0.041180294
0.075201392 0.06422279 0.039366599
0.078250006 0.062651999 0.038040102
0.072025001 0.067955054 0.040611215
0.074500002 0.067671187 0.038645018
0.072100006 0.07201419 0.040265594
0.073916674 0.072153948 0.038116358
0.072018936 0.076364107 0.04012005
0.073750004 0.075099669 0.038249101
0.012937509 0.048064761 0.044810459
0.014765158 0.051786356 0.044229813
0.018718757 0.053152792 0.045064773
0.023079164 0.051673181 0.044300176
0.077000007 0.051899202 0.045470513
0.078250006 0.052796997 0.044212703
0.018687494 0.054241203 0.042918775
0.021916665 0.053794675 0.042455036
0.071887501 0.056880035 0.045710433
0.075993754 0.056071632 0.044730462
0.078633934 0.054986291 0.043341968
0.068000004 0.060238726 0.045290608
0.071139887 0.059915565 0.04384312
0.075031251 0.058819987 0.042751379
0.06705001 0.063924141 0.044979252
0.070275009 0.064231165 0.04260581
0.067391671 0.06773553 0.044878773
0.069687501 0.068326958 0.042678688
0.068546876 0.071736522 0.044946238
0.070375003 0.072657026 0.04279127
0.068388894 0.075517394 0.044790197
0.0703125 0.075503133 0.043031886
0.014204174 0.048291393 0.048745852
0.023312502 0.048621692 0.049163181
0.072916672 0.049326994 0.050250486
0.015583336 0.050495885 0.047733862
0.018562496 0.051285811 0.048506785
0.022020839 0.050745763 0.04749139
0.071187504 0.053288154 0.049835876
0.074679494 0.051556893 0.048606314
0.063895836 0.056437127 0.049527742
0.067413755 0.055706508 0.048638027
0.071083337 0.055015661 0.047860347
0.074708335 0.054462217 0.046968061
0.060625002 0.06002418 0.050201982
0.063596159 0.059895016 0.048115566
0.06635417 0.059633963 0.046540029
0.063362502 0.063917287 0.048233122
0.058250003 0.069464006 0.05011148
0.064312503 0.067264177 0.048654713
0.065979168 0.069159172 0.047398746
0.059500001 0.070219003 0.049974523
0.0641625 0.072227485 0.048962839
0.066850007 0.072173245 0.047346983
0.066 0.074777998 0.046584502
0.065000005 0.045383491 0.053540848
0.015347227 0.047550373 0.052038752
0.018635415 0.048822872 0.052785803
0.022250004 0.047501527 0.052166171
0.06801191 0.047471993 0.053528406
0.071062505 0.048829027 0.05179017
0.017875001 0.049839921 0.051115233
0.020750001 0.049832009 0.050429203
0.061000004 0.052883007 0.053931423
0.063614585 0.052907281 0.053050198
0.067414068 0.052283861 0.052644771
0.071226522 0.0515965 0.051782824
0.056687504 0.056459002 0.053788476
0.059415072 0.055684067 0.052477583
0.063175 0.054686539 0.051340833
0.066875003 0.053985335 0.050486639
0.059070516 0.059923492 0.051919658
0.051250003 0.064930998 0.053679578
0.053500004 0.065683 0.054173212
0.060250007 0.063800417 0.05237082
0.062050004 0.06463059 0.050339367
0.054696433 0.066923149 0.052787352
0.059235122 0.067954727 0.052887123
0.062600002 0.067803837 0.051144786
0.060750004 0.070592247 0.050964497
0.062750004 0.070618115 0.050811302
0.054666672 0.040771686 0.057954069
0.056312501 0.041929878 0.057339922
0.059116669 0.043958731 0.057145353
0.063012503 0.045153089 0.055453874
0.016250007 0.046882994 0.054753583
0.018527783 0.047069736 0.055740654
0.02125001 0.046395503 0.055203948
0.06091667 0.046434663 0.058037665
0.06382212 0.047715016 0.057015024
0.067003474 0.048817091 0.055548109
0.052437503 0.053107508 0.058014251
0.054972228 0.05207739 0.057114158
0.059045456 0.051673315 0.056112066
0.063550003 0.05117365 0.056073356
0.067187503 0.050950162 0.055071689
0.041000005 0.056673996 0.058243457
0.053000003 0.054165684 0.057438426
0.054852277 0.05542279 0.055902995
0.057666671 0.053890996 0.054379161
0.043843754 0.05920551 0.057884004
0.046907816 0.061094202 0.05718812
0.050750002 0.061926819 0.058210611
0.055871531 0.060034506 0.056576058
0.057875 0.061544247 0.054621238
0.048750006 0.063049667 0.055169456
0.051340483 0.063562937 0.056124084
0.054701395 0.064041041 0.056418195
0.058071434 0.064113386 0.055224437
0.056125004 0.066058837 0.054825287
0.058600001 0.066134207 0.054699052
0.046750005 0.036681004 0.062186591
0.048310421 0.038254537 0.062053297
0.051237501 0.039967068 0.060497843
0.053812504 0.040849634 0.058842313
0.051825006 0.042842515 0.061871246
0.05475973 0.043943338 0.060282517
0.057958338 0.044846289 0.058781616
0.048625007 0.048841603 0.062172472
0.050962504 0.048913158 0.061426234
0.055202778 0.04812438 0.061550755
0.05914931 0.048011385 0.059882265
0.061916672 0.048826732 0.058879685
0.035500005 0.051835246 0.062302243
0.037541669 0.053204991 0.062074885
0.048808336 0.051483445 0.06206217
0.050763894 0.051431231 0.060110394
0.054350004 0.050231464 0.059263859
0.059500001 0.049937494 0.059808761
0.039735001 0.055055298 0.060565904
0.042645834 0.056586824 0.061042614
0.047562502 0.05673451 0.062126104
0.051269237 0.055554278 0.06058437
0.053250004 0.057128392 0.059079673
0.044111114 0.058348216 0.05974045
0.0473 0.059216388 0.060135394
0.051263895 0.059876122 0.059973508
0.053729169 0.060057513 0.058987014
0.04299219 0.03514237 0.065284066
0.045687504 0.036522008 0.06326624
0.044333339 0.038390853 0.066120535
0.046622444 0.039545245 0.064601079
0.044300005 0.045144595 0.0663753
0.047368754 0.043537773 0.065274037
0.050660722 0.044259109 0.063404411
0.031700004 0.047932975 0.064673297
0.0346875 0.048857652 0.06590727
0.038124997 0.049649663 0.06641157
0.043796878 0.047967292 0.06604062
0.047000002 0.04754559 0.064068899
0.051546432 0.047118105 0.063568346
0.053364586 0.047392704 0.062641293
0.035506256 0.050511785 0.064273246
0.038817637 0.052299552 0.063957542
0.042743187 0.051813342 0.065026239
0.046604168 0.051642336 0.064103641
0.040750004 0.054457001 0.062702693
0.043387502 0.054751523 0.063305803
0.047097221 0.054883294 0.063089959
0.040281255 0.032227613 0.070262492
0.040875006 0.031401761 0.070168249
0.040218756 0.035427205 0.069205895
0.041683335 0.035980202 0.06736394
0.040055562 0.039365672 0.070197448
0.042366322 0.039355107 0.068198495
0.035250008 0.045363791 0.069891192
0.03914078 0.043778352 0.069800027
0.042787503 0.043563001 0.06802617
0.032375004 0.046223007 0.06772805
0.035501894 0.047138713 0.068197377
0.038880583 0.047785096 0.067917392
0.041916668 0.047411807 0.067423619
0.040111113 0.032061793 0.071828648
0.038995005 0.035100214 0.072325975
0.03888889 0.03942474 0.071998216
0.035812508 0.044303618 0.071045533
0.037406251 0.042316191 0.071749844
0.0032500029 2.7999282e-05 0.07661175
0.039875004 0.028496005 0.078012839
0.038966667 0.031607591 0.076768503
0.037906256 0.035934798 0.076489717
0.037546881 0.039576314 0.077164605
0.001500003 0.042178996 0.077676803
0 0.02772633 0.080320768
0.039005958 0.027865298 0.080849677
0.038000003 0.030882515 0.080707788
0.03645834 0.035724916 0.081733592
0.037375007 0.035351999 0.080511048
0.00052499771 0.040300362 0.081088006
0.036500003 0.03904251 0.082949698
0.037125006 0.038259007 0.08069735
0.0025208294 0.041949414 0.080787316
0.0058541745 0.043641008 0.080742598
0.0085000098 0.0444315 0.080974206
0.036250003 0.042279504 0.08199285
0.013000004 0.045906015 0.082114503
0.025250003 0.045915999 0.0826222
0.039333336 0.024558 0.086272769
0.036500003 0.028665759 0.086679153
0.03813637 0.027030043 0.084945232
0.00037500262 0.030939169 0.086262971
0.036200006 0.03152854 0.085830376
0.037000004 0.031126253 0.084564365
9.3750656e-05 0.035423629 0.086208478
0.03583334 0.034900837 0.085833654
0.036916669 0.033376001 0.083190769
0.0016833395 0.039287247 0.084978476
0.035762507 0.039101653 0.084796779
0.0039583445 0.041843839 0.084003486
0.0064687505 0.042888544 0.084856167
0.010000005 0.044393085 0.084764838
0.013750009 0.045129977 0.085426636
0.01712501 0.045280002 0.086843878
0.026500002 0.045266517 0.08619862
0.031125005 0.044706874 0.085353225
0.034833334 0.042904399 0.084685996
0.015625 0.045946501 0.084113732
0.018375009 0.045958035 0.084679618
0.022416659 0.045961671 0.084864721
0.0255 0.045948841 0.08423005
0.039499998 0.0071141049 0.090958565
0.039625004 0.009039253 0.090923354
0.039812505 0.014716335 0.091061756
0.039291669 0.019279756 0.090476759
0.036145836 0.024182267 0.090744659
0.038435768 0.022771589 0.08927235
0.032250006 0.028522395 0.090977788
0.034755953 0.027054541 0.089771688
0.037611116 0.02542489 0.088042274
0.00018750131 0.032115497 0.087308705
0.031744052 0.031292491 0.090884984
0.034040626 0.03096474 0.088844016
0.0015125126 0.035083987 0.089281566
0.032125007 0.034928285 0.090954617
0.034281254 0.034883209 0.089048408
0.0028611124 0.038229726 0.088745095
0.0054675937 0.040224992 0.089513041
0.032458335 0.039161734 0.09073963
0.033890907 0.039396875 0.08851748
0.006916672 0.041997202 0.087986216
0.0099128783 0.04276716 0.089366525
0.014453128 0.044025116 0.089278929
0.018906251 0.044523142 0.089382581
0.022500001 0.044611566 0.089309715
0.026000001 0.044413172 0.089665145
0.030780423 0.043746538 0.08926031
0.033611115 0.042502992 0.08818467
0.030863699 0.0024363324 0.094773069
0.035000004 0.0024500117 0.094373636
0.038791671 0.002446115 0.094298154
0.032125007 0.0049695149 0.094940953
0.035230905 0.0061718822 0.093881361
0.03839286 0.0063563958 0.092075221
0.03628125 0.010275356 0.094743341
0.03848077 0.010817192 0.092645831
0.036260419 0.015233122 0.095023945
0.038205065 0.015033238 0.092978194
0.035708338 0.019142918 0.094159693
0.037812501 0.019082092 0.092200711
0.031703129 0.023865975 0.09470588
0.034669235 0.022474267 0.093243405
0.037250005 0.021624006 0.091293901
0.00025000423 0.028183497 0.093695849
0.027583342 0.027427696 0.094690077
0.030430995 0.027012952 0.09297663
0.033250004 0.026104189 0.091807202
0.0010624975 0.031574257 0.093007602
0.027979169 0.030408554 0.094760805
0.029716671 0.031543322 0.093583256
0.0028773248 0.034948401 0.093245879
0.0047777817 0.03650289 0.094358861
0.030557297 0.035189845 0.093281507
0.0062386319 0.03873197 0.092922971
0.0096671879 0.040180944 0.093909338
0.013325006 0.041068502 0.09480387
0.027468756 0.040435798 0.094810113
0.030453127 0.039338507 0.0935992
0.010718755 0.041879006 0.091895379
0.014276795 0.042492189 0.092734024
0.01877778 0.042516701 0.093611628
0.022750005 0.042452 0.093871176
0.026519649 0.042681254 0.093043737
0.029958338 0.042251535 0.092186734
0.021916673 0.00042600185 0.096319214
0.026312508 0.0004029125 0.095920213
0.030750006 0.00039377809 0.095754221
0.035250004 0.00038988888 0.095683612
0.039083336 0.00040078163 0.095881358
0.0011875033 0.0024679974 0.097934902
0.02025 0.00055900216 0.098663703
0.022972226 0.0015194416 0.09753491
0.02633819 0.0026850402 0.096518673
0.027833335 0.0052798018 0.0974641
0.030468758 0.0067838281 0.09707088
0.033583339 0.0074207932 0.096070565
0.031455364 0.010661758 0.098721713
0.034187499 0.010767803 0.096897058
0.03168929 0.015286095 0.098870173
0.034500003 0.015058957 0.09700916
0.027750004 0.0201355 0.098980248
0.030629408 0.019153081 0.097937867
0.033691972 0.019087948 0.096054122
0.00022500008 0.023825891 0.098173529
0.02730903 0.023301966 0.097509973
0.030312508 0.022560455 0.096188679
0.00091665983 0.027371742 0.097134098
0.026031256 0.027597822 0.097358286
0.0021874979 0.031387411 0.096566789
0.0040625036 0.032807238 0.09806858
0.02616667 0.031556971 0.097277209
0.0060492456 0.03517992 0.097380474
0.0087499991 0.036225848 0.098704375
0.023718752 0.035846658 0.099004835
0.026571192 0.03517469 0.096816227
0.029250003 0.036417998 0.095332399
0.010020837 0.038460441 0.096741892
0.014204867 0.039656393 0.097173885
0.018708333 0.040352486 0.096867353
0.022695459 0.039544053 0.097166359
0.026007816 0.038835593 0.096139006
0.010375008 3.9629638e-05 0.10195202
0.014250003 8.6918473e-05 0.10278359
0.016750008 0 0.1012688
0.001935184 0.0031797886 0.10098568
0.0056125 0.0015655085 0.10207513
0.0087499991 0.0010353401 0.10290087
0.018583335 0.00070844591 0.1012906
0.022589289 0.0022977963 0.10171565
0.025375001 0.0038279966 0.1001285
0.00072500855 0.0056647658 0.10275629
0.026814587 0.0063191652 0.10118234
0.027927086 0.010856256 0.10215533
0.02966072 0.011241764 0.10009235
0.00018750131 0.016208746 0.10327426
0.027833343 0.015225641 0.10209234
0.029648814 0.014712863 0.10022521
0.00054688007 0.019311555 0.10176411
0.024250001 0.020674996 0.1034881
0.026812501 0.018799447 0.1012583
0.0015413165 0.023003779 0.10129585
0.023874998 0.02330444 0.10232578
0.025238104 0.022260599 0.1006048
0.0027227327 0.027263232 0.10086109
0.0048437566 0.028758623 0.10271077
0.023525007 0.027607746 0.10193195
0.024874993 0.02731242 0.099612847
0.0035500005 0.030252792 0.099863581
0.0057149231 0.031458966 0.10108268
0.008600004 0.032481201 0.10253659
0.020000003 0.032795005 0.10346501
0.022992432 0.031613149 0.10162611
0.024625003 0.030888624 0.09962751
0.010298751 0.035102256 0.10101969
0.014528416 0.035668515 0.10205372
0.01842948 0.035245679 0.10216346
0.022189587 0.035095163 0.10062292
0.014291666 0.037804075 0.099736951
0.018708341 0.037939511 0.099702857
0.003687501 0.0040457621 0.10416347
0.0062250048 0.0032265931 0.10466062
0.0100125 0.0027995184 0.10480365
0.014003217 0.0020436421 0.10560861
0.018491067 0.0020665303 0.10622382
0.022276789 0.0033916086 0.10561712
0.024500005 0.0043700039 0.1036236
0.0020416677 0.006822899 0.10478237
0.0056441724 0.0061699674 0.10650571
0.0094218701 0.0060982853 0.10694434
0.023854166 0.0052784979 0.10639447
0.025583342 0.0070463344 0.10539705
0.0017222241 0.010636806 0.10559306
0.0052500069 0.010616466 0.10756266
0.0082500055 0.0092107877 0.10758586
0.026534103 0.010686629 0.10538778
0.002142258 0.015204854 0.10544809
0.0052083433 0.013596833 0.10747505
0.024333335 0.016778998 0.10691033
0.025975004 0.014866807 0.10545644
0.0028863624 0.018847041 0.10551302
0.023252606 0.019262366 0.10620406
0.025072917 0.018258698 0.10466227
0.0032000095 0.02253551 0.1048879
0.0049375072 0.023196779 0.1067346
0.02025 0.023231812 0.10714839
0.022156253 0.022675805 0.10531798
0.0039285719 0.025484569 0.10411389
0.0061607212 0.027116366 0.10524612
0.0094513893 0.028409027 0.10670017
0.014250003 0.029023029 0.10723768
0.018946625 0.027474947 0.10654943
0.021416664 0.026715852 0.10493559
0.0072500035 0.029957511 0.10391486
0.010429174 0.031098716 0.10502917
0.01425001 0.031452976 0.1055963
0.01846806 0.0312948 0.1049186
0.021062501 0.030261151 0.10410477
0.015750006 0.034222491 0.1035258
0.014796875 0.0036751479 0.10828155
0.018265627 0.0035792738 0.10839692
0.011250004 0.0070558563 0.1086323
0.014261544 0.0063393638 0.10998954
0.018798076 0.0062327087 0.11044773
0.022749588 0.0066778436 0.10902146
0.0070833415 0.010836951 0.10775142
0.01015386 0.010573499 0.10873668
0.013637513 0.010540128 0.11102177
0.02025 0.010752678 0.11155187
0.022590913 0.010756262 0.11040809
0.024850003 0.010699883 0.10836212
0.005985938 0.014891297 0.10841623
0.0098697171 0.014626063 0.11028576
0.013812505 0.015010379 0.11120334
0.018655211 0.015147693 0.11132351
0.022598714 0.014754295 0.10949628
0.0062374994 0.01859387 0.10936638
0.0092812479 0.019229777 0.11106133
0.014736116 0.019338317 0.11122729
0.018722922 0.01855614 0.10998973
0.021786116 0.018170439 0.10835539
0.0064490885 0.022174351 0.10856045
0.0098503828 0.022786148 0.11016642
0.01431077 0.022682168 0.11043479
0.01819773 0.022565387 0.10876096
0.0080000013 0.025804006 0.1077309
0.010405354 0.026140042 0.10859458
0.014279447 0.026429899 0.10875539
0.017458335 0.025694616 0.10813694
0.015750006 0.0114621 0.1118115
0.017937504 0.010669485 0.11189578
0.015750006 0.013568401 0.1118234
0.017937504 0.013471104 0.1117894
0.011250004 0.018503584 0.11171231
0.01275 0.018383808 0.11176725
