# .PCD v0.7 - Point Cloud Data file format
VERSION 0.7
FIELDS x y z
SIZE 4 4 4
TYPE F F F
COUNT 1 1 1
WIDTH 519
HEIGHT 1
VIEWPOINT 0 0 0 1 0 0 0
POINTS 519
DATA ascii
0.33318567 0.0024720822 0.144172
0.33251807 0.0012676455 0.14478882
0.33623022 -0.0023178551 0.14559358
0.33571768 -0.0016115624 0.14300403
0.33436558 -0.0076119974 0.14629357
0.33290893 -0.0036057588 0.14592454
0.34069702 -0.0046935286 0.14550467
0.33961964 -0.0024513546 0.14405963
0.33498123 -0.013060911 0.1436006
0.33715367 -0.0079670735 0.14701989
0.33782297 -0.0039645489 0.1456755
0.33971792 -0.0026743114 0.14504583
0.33603716 -0.011650553 0.14382842
0.33509213 -0.0070261769 0.14514473
0.34049809 -0.018009879 0.14213
0.34325254 -0.0096944068 0.14563067
0.34317571 -0.0076232646 0.143848
0.33843368 -0.015639229 0.14226472
0.33794135 -0.016092151 0.14355442
0.34272233 -0.011322143 0.144417
0.34094647 -0.0059473403 0.14564037
0.34552178 -0.019913867 0.14181791
0.34731802 -0.0071608908 0.14519776
0.341326 -0.018037654 0.14087792
0.34430468 -0.016252303 0.14505216
0.34414613 -0.011711862 0.1444325
0.34379062 -0.010207409 0.14547642
0.3407352 -0.014820728 0.14420667
0.34119964 -0.013553 0.14802994
0.347388 -0.020276628 0.14293286
0.3476181 -0.019311782 0.14255124
0.34976989 -0.010661289 0.14540118
0.34774214 -0.017825235 0.1441844
0.34744415 -0.012564424 0.1461682
0.34853959 -0.011775818 0.14385964
0.35186023 -0.022490704 0.1415472
0.3507224 -0.020869326 0.1418761
0.35197172 -0.020118689 0.14480869
0.35298812 -0.017553883 0.14575677
0.349235 -0.0181341 0.14614713
0.35688651 -0.024270348 0.14238431
0.35565645 -0.024350185 0.14346157
0.36107272 -0.01190763 0.14884597
0.35395032 -0.023518328 0.14132619
0.35524425 -0.022512279 0.14534824
0.35612857 -0.017467875 0.14828981
0.35841051 -0.015128152 0.14806269
0.36140057 -0.023690589 0.1412399
0.35939416 -0.026148435 0.14310586
0.35965306 -0.024304528 0.14525792
0.3659665 -0.01499738 0.14746842
0.36628965 -0.015429165 0.14956486
0.35953042 -0.023124937 0.14838506
0.3599112 -0.020980222 0.15052859
0.36162955 -0.018027134 0.15061001
0.38008714 0.036194503 0.17671151
0.37768871 0.032488715 0.17972641
0.37287623 0.027943518 0.18253221
0.37318918 0.031322394 0.18187505
0.371185 0.029748417 0.18267545
0.37107137 0.029259216 0.18499708
0.36656848 -0.026143603 0.14164622
0.3644107 -0.026273742 0.1435103
0.36167443 -0.02550865 0.14573325
0.36471042 -0.022907743 0.15145729
0.36597878 -0.01813117 0.14905876
0.36879015 -0.016181147 0.15203899
0.36249059 -0.019930381 0.14893161
0.38406247 0.032166407 0.17663124
0.38126945 0.02648811 0.17837146
0.37998497 0.030680373 0.17814744
0.37770233 0.026863389 0.17886198
0.37723508 0.029018 0.17750336
0.37559965 0.026406173 0.18328875
0.37233865 0.023909625 0.18404633
0.3675842 -0.02786847 0.14106883
0.36733109 -0.028683405 0.14507963
0.37227377 -0.019132659 0.15051268
0.37410906 -0.018109657 0.14970292
0.36710241 -0.026237711 0.14978302
0.36720806 -0.022778882 0.15200095
0.36879638 -0.020032011 0.14970373
0.36936161 -0.018018667 0.15031718
0.38925701 0.029888146 0.17635216
0.38527247 0.022957023 0.1756105
0.38496453 0.024895787 0.17640622
0.385133 0.029093273 0.17594244
0.38203004 0.022848342 0.17724669
0.38156334 0.026713096 0.17529307
0.38295782 0.029397547 0.17575032
0.37890008 0.021501765 0.17692463
0.37914941 0.023972128 0.17901006
0.37759537 0.019480925 0.18249846
0.37537101 0.0243899 0.18427779
0.37452063 0.020474959 0.1866394
0.37310472 0.024072036 0.18371107
0.37541381 -0.029481146 0.14648145
0.37277916 -0.030472636 0.14744473
0.37245813 -0.025344513 0.15389039
0.37401783 -0.022791466 0.15134875
0.39478555 0.024965279 0.17114332
0.39339691 0.027664233 0.17258584
0.37057158 -0.026173737 0.15264001
0.37093455 -0.021212909 0.15194593
0.39009339 0.018355303 0.17368354
0.39147985 0.024057977 0.17416817
0.3905786 0.026690207 0.17546442
0.38634187 0.01565785 0.17326936
0.38853028 0.020087138 0.17492318
0.3892197 0.024094813 0.1740346
0.381863 0.015020926 0.17721678
0.38222221 0.019598108 0.17879206
0.38017789 0.014194071 0.18055759
0.37728146 0.018684186 0.17979109
0.37933144 0.014384907 0.18359783
0.3782019 0.016989809 0.18514176
0.37543917 0.014396023 0.18698247
0.37474889 0.01564762 0.186961
0.37672901 -0.031635713 0.14956838
0.3804374 -0.024916416 0.15020467
0.39890853 0.018532809 0.17105094
0.37447685 -0.029346393 0.14806043
0.37685269 -0.026736122 0.15081865
0.3766402 -0.022162287 0.15230075
0.39494985 0.016721588 0.1723838
0.39788076 0.019141071 0.17152455
0.39111632 0.01029513 0.17249115
0.39009818 0.013681814 0.17353167
0.39410481 0.017966878 0.17365927
0.39333531 0.0207133 0.17476508
0.3885715 0.0057208315 0.17442541
0.38880327 0.010833792 0.17401874
0.3863886 0.013863273 0.17300719
0.38520348 0.010333445 0.17723981
0.38223922 0.0034294836 0.18163958
0.38240778 0.0098388083 0.18185386
0.38185555 0.011474427 0.18218993
0.37925023 0.0033020489 0.18114136
0.38068095 0.0075382218 0.18434858
0.37979203 0.012910008 0.18396461
0.37697005 0.013392128 0.18554035
0.40064058 0.01050159 0.16538656
0.37825271 -0.03143578 0.1487767
0.38149592 -0.030915 0.15246725
0.38281557 -0.0259551 0.15221983
0.39964366 0.013503164 0.1694037
0.39624268 0.015835494 0.16942115
0.38000041 -0.027562218 0.15060465
0.37870198 -0.025812864 0.15049057
0.39417601 0.0060854629 0.17032821
0.39441136 0.0084453523 0.17261474
0.39509279 0.013051793 0.17213772
0.39771527 0.015719332 0.17100428
0.38944224 0.0018015727 0.17178847
0.39151281 0.0047640353 0.17190176
0.39227685 0.0084471554 0.17012705
0.39392278 0.013293892 0.17115903
0.38649362 0.0053443052 0.17354541
0.38265592 -0.0024296828 0.17645717
0.3848505 -0.0011043437 0.17942804
0.38674453 0.0057758279 0.17795178
0.38479427 0.0068017617 0.17947899
0.38161889 -0.00079599023 0.17788486
0.38409257 0.0054385103 0.18108186
0.38446411 0.0071960241 0.17918402
0.38156298 0.0059758648 0.18265593
0.38089159 0.0083421692 0.18467686
0.40154997 0.0010800883 0.1606306
0.40139756 0.00022733584 0.16005349
0.4007946 0.00323762 0.16493496
0.40230274 0.0073732659 0.16783425
0.38358149 -0.031484716 0.15047108
0.384018 -0.030805781 0.15114474
0.38464788 -0.028417008 0.1526802
0.40224656 0.0056914911 0.16882196
0.40248176 0.0077602677 0.16926655
0.40214896 0.01147883 0.17007951
0.39464918 -0.0027703568 0.16983445
0.39500251 2.1282583e-05 0.16973388
0.39545119 0.0039255321 0.1712552
0.39752486 0.0074186996 0.17197388
0.39972869 0.012544014 0.17164116
0.38793859 -0.013658077 0.16895407
0.39284077 -0.0046088137 0.17125472
0.39353296 -0.00091882795 0.17153166
0.3915202 0.0036600269 0.17270078
0.38560057 -0.012352269 0.17242467
0.38579315 -0.0089353137 0.17298312
0.38789681 -0.005447831 0.17594729
0.38802719 0.00050033256 0.17537314
0.38648289 0.0047564656 0.17710249
0.38535875 -0.0044298954 0.17707473
0.38838607 -0.0050689653 0.17555943
0.38810289 -0.0015579015 0.17722014
0.38660738 0.00070871785 0.1792317
0.38381553 0.0024546608 0.18085368
0.38491338 0.00403741 0.1806002
0.40386787 -0.0083587952 0.15691458
0.40431556 -0.0066589676 0.1580638
0.40205827 -0.0043322593 0.16113627
0.40219063 -0.0021349788 0.16048603
0.4035171 -0.0043019131 0.16176188
0.40204206 -0.00029282644 0.16374531
0.40074679 0.0010730363 0.16506273
0.39781064 -0.009433642 0.16659327
0.39788735 -0.0049338564 0.16862029
0.39918262 -0.0014704317 0.16730615
0.40138525 0.0010551848 0.16924171
0.401519 0.0063928925 0.16996491
0.39247653 -0.020266058 0.1645243
0.39146718 -0.018594928 0.16643845
0.39773268 -0.0075183772 0.16968128
0.39624059 -0.0060957782 0.17025124
0.39685941 -0.002456557 0.16921817
0.40157366 0.0033687204 0.17031631
0.39049968 -0.015106272 0.16709833
0.39075375 -0.013231441 0.17175137
0.39335746 -0.0094087422 0.17242758
0.39467815 -0.0060599893 0.17177837
0.39185247 -0.0041804723 0.17460509
0.38947049 -0.011911225 0.17252466
0.39076054 -0.0095436051 0.17432159
0.39223209 -0.006676469 0.17564234
0.38992777 -0.0034488775 0.17531846
0.40628439 -0.014619894 0.15623379
0.40535679 -0.011063389 0.15840192
0.40565839 -0.013576686 0.15991357
0.40541548 -0.010100137 0.1598486
0.40093634 -0.016704511 0.16331477
0.40223953 -0.012964625 0.16321738
0.40258911 -0.0073804967 0.16426371
0.39525497 -0.023996498 0.16155922
0.39659208 -0.022792423 0.16403084
0.39440721 -0.020503961 0.16628306
0.40062848 -0.016449492 0.16590196
0.39975908 -0.011678714 0.16502148
0.40037259 -0.0072529279 0.16855614
0.40232378 -0.0046148486 0.16822906
0.39509469 -0.021441342 0.16515908
0.39405996 -0.017274901 0.16867509
0.39558235 -0.015422307 0.16663507
0.39756837 -0.012231994 0.16883868
0.3931146 -0.01478301 0.16820227
0.39300469 -0.012784585 0.17045444
0.39526379 -0.0095955841 0.16964278
0.41013765 -0.018725906 0.15515892
0.41239634 -0.01729098 0.15404099
0.40860307 -0.018273529 0.15592355
0.40582252 -0.014601078 0.15738873
0.40728998 -0.018101204 0.15914048
0.40631789 -0.014386792 0.16087474
0.40212765 -0.02255762 0.16173829
0.40406042 -0.019462444 0.16251858
0.40473154 -0.015270874 0.16419218
0.39856809 -0.02528183 0.16108239
0.39806852 -0.020968147 0.16283643
0.39923164 -0.018863741 0.16566178
0.39847112 -0.016325526 0.16711129
0.41292417 -0.019182675 0.15658101
0.41018161 -0.020795237 0.15975653
0.40785974 -0.021347933 0.16190758
0.40201741 -0.024438675 0.16398978
0.40517798 -0.022355277 0.16393733
0.42111385 -0.048858646 0.11933527
0.41766617 -0.023162846 0.15621041
0.41642433 -0.021932479 0.15774326
0.41296235 -0.022739291 0.16038217
0.4104594 -0.025463615 0.16600101
0.39591816 -0.057235993 0.15276621
0.40687484 -0.05691763 0.1416802
0.42093372 -0.024580326 0.15670998
0.41845566 -0.026312847 0.16008775
0.41606152 -0.027701292 0.16343327
0.41604242 -0.026449643 0.16111916
0.39812639 -0.059128854 0.1534998
0.4139024 -0.028233565 0.16592504
0.41445139 -0.02515221 0.16324443
0.40045264 -0.057133872 0.15415962
0.40090945 -0.056303229 0.15748176
0.40056643 -0.052787326 0.1586583
0.41011059 -0.028423281 0.16671751
0.40191624 -0.049181577 0.16208731
0.40647471 -0.039256755 0.1672361
0.42830828 -0.025586341 0.15792212
0.42181805 -0.029076029 0.16019918
0.42429337 -0.027301949 0.1580818
0.41048822 -0.06156151 0.14681876
0.42112219 -0.029602988 0.16020074
0.42064747 -0.027781848 0.16157556
0.40573782 -0.060889471 0.1500143
0.41926807 -0.029987171 0.16463277
0.4192808 -0.026055761 0.16091624
0.4040893 -0.060385209 0.15366431
0.41464835 -0.030793736 0.16630366
0.40222451 -0.059493721 0.15720336
0.40292814 -0.056258388 0.15887971
0.40225184 -0.052666824 0.16096649
0.40493366 -0.050126124 0.16249192
0.40720809 -0.046247356 0.16528787
0.40899134 -0.039994977 0.16740116
0.41097337 -0.033181563 0.16916431
0.41221321 -0.03083309 0.16725604
0.40211499 -0.046321683 0.16417035
0.40523702 -0.044560879 0.16549499
0.40664268 -0.042593881 0.16690463
0.40734369 -0.037708379 0.16621119
0.44101381 -0.027488012 0.14417189
0.44010285 -0.026576918 0.1481369
0.43581313 -0.026657987 0.15094253
0.4320704 -0.028846361 0.15395805
0.42992654 -0.031633694 0.15859051
0.43149918 -0.029441383 0.15672043
0.42582834 -0.036370121 0.15844697
0.42582288 -0.032950249 0.15998022
0.42784116 -0.028807499 0.15769047
0.40945742 -0.062792867 0.14858653
0.42226064 -0.036189999 0.16101436
0.4228763 -0.032872092 0.16042438
0.4097639 -0.060834173 0.15241943
0.42006379 -0.036036193 0.16432215
0.42014143 -0.03295628 0.16418602
0.40567979 -0.059110031 0.15609528
0.40708941 -0.058701612 0.15814552
0.41894704 -0.036254957 0.16855778
0.41736162 -0.034193888 0.16811518
0.40638602 -0.05504553 0.15923731
0.40781155 -0.054296032 0.16204248
0.40738186 -0.051222634 0.16491431
0.40977436 -0.047445141 0.16812333
0.41047063 -0.045963772 0.16891722
0.41099152 -0.040319122 0.17046914
0.41462764 -0.036940731 0.16924429
0.41495016 -0.033516839 0.17216171
0.44311276 -0.035976864 0.14001098
0.44517511 -0.03292603 0.1415112
0.44694325 -0.02929334 0.14372605
0.44224393 -0.034401722 0.14412606
0.44190702 -0.030709743 0.14414319
0.44156545 -0.028986171 0.14562386
0.43948197 -0.033948649 0.14795871
0.43991154 -0.027497359 0.14880681
0.43731532 -0.03364671 0.15117209
0.4359754 -0.030255761 0.15224829
0.43517703 -0.032321628 0.1564977
0.43293971 -0.028264713 0.15553352
0.42937937 -0.034732282 0.15591452
0.42958412 -0.034631208 0.15571274
0.43000242 -0.031668261 0.15666637
0.41475546 -0.064615443 0.14948799
0.4280076 -0.041680209 0.16080549
0.42738178 -0.03846661 0.15827569
0.42911401 -0.033206075 0.16045439
0.41338238 -0.064323947 0.15150298
0.42374665 -0.041063771 0.16073412
0.42516637 -0.03776218 0.1617993
0.41215882 -0.06133958 0.15544058
0.41267982 -0.062790051 0.15910986
0.42147228 -0.036860667 0.16774276
0.40990067 -0.058678031 0.15905102
0.41450861 -0.056954492 0.16237684
0.4129242 -0.052579395 0.164758
0.41882098 -0.043139298 0.16809885
0.41816768 -0.040253468 0.16929549
0.41070867 -0.056764573 0.16380641
0.41040388 -0.052290685 0.16531013
0.41389614 -0.049433634 0.16713955
0.41453153 -0.04626257 0.16829062
0.41549852 -0.042384714 0.17022187
0.41736528 -0.038040452 0.17041562
0.44163588 -0.044116609 0.1363764
0.44312236 -0.039970584 0.13732575
0.44507354 -0.036457155 0.13865761
0.4455668 -0.031936247 0.14039914
0.44871947 -0.029005293 0.14005879
0.43574569 -0.064311042 0.13211431
0.44372523 -0.04818248 0.13775811
0.44224817 -0.043312699 0.13899656
0.44261488 -0.041598789 0.14022125
0.44300181 -0.041014768 0.14279534
0.44310382 -0.039854195 0.1456275
0.44283816 -0.034826562 0.14422905
0.44207436 -0.039064817 0.14942208
0.44095805 -0.034240857 0.14827405
0.43718827 -0.037319504 0.15286127
0.43810031 -0.035211235 0.15346354
0.43474662 -0.044555679 0.15687689
0.4353449 -0.037654012 0.15509306
0.43645474 -0.036126494 0.15352108
0.42197859 -0.065107726 0.14793263
0.43146223 -0.042124413 0.15792891
0.43323651 -0.038000043 0.15724252
0.41899133 -0.067122854 0.14901909
0.42826667 -0.042231776 0.15953261
0.41572112 -0.064763099 0.15349714
0.41690165 -0.061941031 0.15729028
0.42482635 -0.043621387 0.1620632
0.41589332 -0.062469974 0.15816562
0.4178032 -0.059457731 0.16147321
0.42313337 -0.046980295 0.16507433
0.42256194 -0.044196188 0.1645011
0.4233537 -0.039162159 0.16628622
0.41560695 -0.057862014 0.16176879
0.41394514 -0.055035021 0.16643406
0.41558567 -0.051272608 0.16771497
0.41900921 -0.046788756 0.16746637
0.42104474 -0.044638626 0.16772674
0.44190326 -0.056812003 0.13367122
0.44320935 -0.053942017 0.13599306
0.4439097 -0.051286489 0.13843349
0.43735328 -0.064490452 0.1343369
0.441405 -0.062558897 0.13354923
0.44028136 -0.05965266 0.13607775
0.44468474 -0.050829444 0.1376936
0.44500417 -0.04710836 0.1413192
0.4441635 -0.044168234 0.1426865
0.43587923 -0.066619232 0.13708581
0.44354644 -0.04532158 0.14498891
0.44254893 -0.044672973 0.14978679
0.44190958 -0.040958129 0.14994092
0.42935708 -0.066511728 0.14397895
0.43969163 -0.042823777 0.15411879
0.44031462 -0.041092217 0.15250735
0.42712554 -0.06620127 0.14617515
0.43554986 -0.045907706 0.15683629
0.43615529 -0.045054443 0.15388197
0.42679021 -0.066368356 0.14918046
0.43298516 -0.050659254 0.15889138
0.43194637 -0.04386612 0.15683596
0.42096162 -0.064085945 0.15259463
0.42227215 -0.0652311 0.15547775
0.43031222 -0.04689014 0.15990627
0.42936087 -0.0457794 0.15871292
0.42051995 -0.064506821 0.15527099
0.42097059 -0.063002847 0.15705593
0.42307907 -0.061366394 0.15973255
0.42760071 -0.052441575 0.16423343
0.42486551 -0.049402952 0.16295648
0.42504776 -0.045815073 0.16291559
0.42034581 -0.059557177 0.16206545
0.42193955 -0.055879362 0.16313003
0.42236403 -0.052317835 0.16599026
0.42367747 -0.048800692 0.16663957
0.4206498 -0.057235882 0.16489433
0.42102003 -0.052804749 0.16560328
0.4390561 -0.066250727 0.13544515
0.44084167 -0.063028224 0.13638699
0.4422543 -0.060401902 0.13664334
0.44328666 -0.05699002 0.13853909
0.44686604 -0.053473018 0.1411383
0.44915363 -0.046003863 0.14472914
0.44537517 -0.04605291 0.14289695
0.43726549 -0.06727843 0.13729285
0.4401783 -0.064624496 0.14051078
0.44095033 -0.060186788 0.14125586
0.44508028 -0.047389939 0.14632933
0.44701907 -0.047114287 0.14774248
0.43631226 -0.068013504 0.14277345
0.43875188 -0.065026201 0.14373761
0.44021973 -0.063755676 0.14397076
0.44536141 -0.046120733 0.15029243
0.43261608 -0.065980785 0.1455683
0.4377048 -0.066752158 0.14510539
0.44100741 -0.050027665 0.15549131
0.44295815 -0.04613011 0.15341932
0.4306154 -0.067015953 0.14777067
0.43830317 -0.050528284 0.15686268
0.4389627 -0.047837079 0.15520538
0.4282794 -0.06546969 0.15242109
0.43170586 -0.065693654 0.15284464
0.43648547 -0.052939609 0.16028032
0.4334338 -0.050425701 0.1585899
0.42791981 -0.065257922 0.15466209
0.42583081 -0.063258588 0.15609275
0.43053797 -0.063484877 0.15987033
0.42938375 -0.059012152 0.16208588
0.4310573 -0.055343881 0.16090718
0.43259838 -0.050966267 0.16284293
0.42600492 -0.062723078 0.15842091
0.42656267 -0.060344774 0.16033775
0.42730337 -0.059943721 0.16209239
0.42692703 -0.0528717 0.16391547
0.42779741 -0.052832793 0.16205095
0.42589197 -0.056925125 0.16345103
0.44787472 -0.057065181 0.14313303
0.44992459 -0.053104535 0.14403562
0.44450849 -0.060177397 0.14416753
0.4456169 -0.059126951 0.14544646
0.4470081 -0.055046733 0.14753677
0.44852546 -0.050614439 0.14857189
0.44008437 -0.064519458 0.14512853
0.44163901 -0.061273299 0.14630459
0.44306228 -0.059906013 0.1500124
0.44686607 -0.054588873 0.15034935
0.44531366 -0.052410789 0.15222417
0.44542795 -0.049507737 0.15264517
0.43747649 -0.064219132 0.1462048
0.43862069 -0.061470084 0.15141976
0.44169241 -0.060265418 0.15304407
0.44430295 -0.057772152 0.15429862
0.44329309 -0.051885344 0.15371536
0.43421391 -0.065379553 0.15274136
0.43742734 -0.064307928 0.15405768
0.44034401 -0.059574954 0.15622866
0.44023573 -0.054616235 0.15597089
0.43854684 -0.052047178 0.15589131
0.43208653 -0.066500895 0.15475434
0.4343226 -0.063247949 0.15595272
0.43641087 -0.058081649 0.15892228
0.43605718 -0.055375002 0.15808846
0.43198484 -0.065069333 0.15733904
0.43311393 -0.062075399 0.15831944
0.4321214 -0.06116005 0.15961188
0.43430924 -0.056148689 0.15940402
0.44413707 -0.057687625 0.15148152
0.44558409 -0.057491131 0.15151134
0.44408602 -0.057765808 0.15155078
0.44404429 -0.056459326 0.15581846
0.43823406 -0.063319072 0.15367012
0.43982047 -0.061736535 0.15592688
