# .PCD v0.7 - Point Cloud Data file format
VERSION 0.7
FIELDS x y z rgb
SIZE 4 4 4 4
TYPE F F F U
COUNT 1 1 1 1
WIDTH 1015
HEIGHT 1
VIEWPOINT 0 0 0 1 0 0 0
POINTS 1015
DATA ascii
-0.0044224123 -0.063207619 0.17300001 4287854677
-0.0040124417 -0.063207619 0.17300001 4287986263
-0.0036024707 -0.063207619 0.17300001 4288248663
-0.0031925 -0.063207619 0.17300001 4288248663
-0.0027825292 -0.063207619 0.17300001 4287985491
-0.0023725582 -0.063207619 0.17300001 4288117077
-0.0019625877 -0.063207619 0.17300001 4288248663
-0.0015526167 -0.063207619 0.17300001 4288380249
-0.001142646 -0.063207619 0.17300001 4287988059
-0.00073267514 -0.063207619 0.17300001 4287988059
-0.00032270438 -0.063207619 0.17300001 4287660378
8.7266431e-05 -0.063207619 0.17300001 4287726171
0.00049723726 -0.063207619 0.17300001 4287595100
0.00090720801 -0.063207619 0.17300001 4287858272
0.0013171788 -0.063207619 0.17300001 4287726686
0.0017271497 -0.063207619 0.17300001 4287792479
0.0021371203 -0.063207619 0.17300001 4287135065
0.0025470911 -0.063207619 0.17300001 4286148170
0.0029399691 -0.062842257 0.17200001 4283583528
0.0033475703 -0.062842257 0.17200001 4281807117
0.0037551711 -0.062842257 0.17200001 4281019659
0.0041627721 -0.062842257 0.17200001 4281217038
0.0045703733 -0.062842257 0.17200001 4280430870
0.0050069159 -0.063207619 0.17300001 4280694042
0.0054168869 -0.063207619 0.17300001 4280170526
0.0058268574 -0.063207619 0.17300001 4280170526
0.0062368289 -0.063207619 0.17300001 4279778080
0.0066467994 -0.063207619 0.17300001 4279843873
0.0070567699 -0.063207619 0.17300001 4279778080
0.0074667409 -0.063207619 0.17300001 4279843873
0.007876711 -0.063207619 0.17300001 4279778080
0.008286682 -0.063207619 0.17300001 4279712287
0.0086966539 -0.063207619 0.17300001 4279711520
0.0091066239 -0.063207619 0.17300001 4279974692
0.0095716044 -0.06357298 0.17400001 4279908901
0.0099839447 -0.06357298 0.17400001 4280040487
0.010396285 -0.06357298 0.17400001 4280171303
0.010808626 -0.06357298 0.17400001 4280434475
0.011220966 -0.06357298 0.17400001 4280697133
0.011700165 -0.063938342 0.17500001 4280762926
0.012114876 -0.063938342 0.17500001 4280762926
0.012529586 -0.063938342 0.17500001 4280762926
0.012944297 -0.063938342 0.17500001 4280828458
0.013359006 -0.063938342 0.17500001 4280960044
0.013773717 -0.063938342 0.17500001 4282208310
0.014269504 -0.064303704 0.17600001 4282932033
0.014686584 -0.064303704 0.17600001 4283523906
0.015103665 -0.064303704 0.17600001 4283523906
0.015520744 -0.064303704 0.17600001 4283655490
0.01602838 -0.064669065 0.177 4283458111
0.016447829 -0.064669065 0.177 4283458111
0.01686728 -0.064669065 0.177 4283326525
0.017384395 -0.065034427 0.178 4283589697
0.017806213 -0.065034427 0.178 4283326525
0.018228034 -0.065034427 0.178 4283063101
0.018649854 -0.065034427 0.178 4283063101
0.019178817 -0.065399788 0.17900001 4283063103
0.019603008 -0.065399788 0.17900001 4283063103
0.020027196 -0.065399788 0.17900001 4283915848
0.020451386 -0.065399788 0.17900001 4286087017
0.020992199 -0.06576515 0.18000001 4286938733
0.021418758 -0.06576515 0.18000001 4286149217
0.021845317 -0.06576515 0.18000001 4284501312
0.022271877 -0.06576515 0.18000001 4285027656
0.022824539 -0.066130511 0.18100001 4284830536
0.023253469 -0.066130511 0.18100001 4284041020
0.023682395 -0.066130511 0.18100001 4286147679
0.024244538 -0.066495873 0.18200001 4287134574
0.024675837 -0.066495873 0.18200001 4287200621
0.025245087 -0.066861235 0.18300001 4286213726
0.025678756 -0.066861235 0.18300001 4284371007
0.026112422 -0.066861235 0.18300001 4283713077
0.026546091 -0.066861235 0.18300001 4285225798
0.027127191 -0.067226604 0.18400002 4285883728
0.027563231 -0.067226604 0.18400002 4285356871
0.028151438 -0.067591958 0.185 4287396454
0.028589843 -0.067591958 0.185 4287265127
0.029185161 -0.067957319 0.186 4287199334
-0.033635359 -0.070783474 0.19500001 4283717190
-0.033003133 -0.070420481 0.19400001 4284901464
-0.029913103 -0.06860552 0.18900001 4282997574
-0.029153416 -0.067879535 0.18700001 4282865988
-0.027087979 -0.067153551 0.185 4282209341
-0.026505524 -0.066790566 0.18400002 4282603838
-0.026069485 -0.066790566 0.18400002 4282472252
-0.025633445 -0.066790566 0.18400002 4282602039
-0.025060464 -0.066427574 0.18300001 4283259969
-0.024626797 -0.066427574 0.18300001 4283721547
-0.024193129 -0.066427574 0.18300001 4281616171
-0.023629626 -0.066064581 0.18200001 4280895528
-0.023198327 -0.066064581 0.18200001 4281092907
-0.022767028 -0.066064581 0.18200001 4281358132
-0.022335729 -0.066064581 0.18200001 4281094960
-0.021784076 -0.065701589 0.18100001 4280634661
-0.021355148 -0.065701589 0.18100001 4281358384
-0.020926218 -0.065701589 0.18100001 4282408755
-0.020384045 -0.065338589 0.18000001 4282474548
-0.019957485 -0.065338589 0.18000001 4282736435
-0.019422421 -0.064975597 0.17900001 4282670642
-0.018998232 -0.064975597 0.17900001 4282474035
-0.018574042 -0.064975597 0.17900001 4282671414
-0.018048456 -0.064612605 0.178 4282605623
-0.017626636 -0.064612605 0.178 4282408244
-0.017108161 -0.064249612 0.177 4282275888
-0.01668871 -0.064249612 0.177 4283065404
-0.016269261 -0.064249612 0.177 4282341427
-0.015849812 -0.064249612 0.177 4282144048
-0.015343185 -0.063886628 0.17600001 4282537523
-0.014926106 -0.063886628 0.17600001 4282471730
-0.014509025 -0.063886628 0.17600001 4282930734
-0.014091945 -0.063886628 0.17600001 4282733355
-0.013674865 -0.063886628 0.17600001 4285622087
-0.013257784 -0.063886628 0.17600001 4287332705
-0.012840705 -0.063886628 0.17600001 4287396956
-0.012353036 -0.063523635 0.17500001 4287331163
-0.011938325 -0.063523635 0.17500001 4287396704
-0.011523615 -0.063523635 0.17500001 4287265118
-0.011108904 -0.063523635 0.17500001 4286739553
-0.010694195 -0.063523635 0.17500001 4286936932
-0.010279483 -0.063523635 0.17500001 4287396706
-0.0098084025 -0.063160643 0.17400001 4287199327
-0.0093960622 -0.063160643 0.17400001 4287132500
-0.008983722 -0.063160643 0.17400001 4286737742
-0.0085713817 -0.063160643 0.17400001 4286737481
-0.0081590414 -0.063160643 0.17400001 4287000653
-0.0077466997 -0.063160643 0.17400001 4287264084
-0.0073343595 -0.063160643 0.17400001 4287724635
-0.0069220187 -0.063160643 0.17400001 4288184934
-0.0065096784 -0.063160643 0.17400001 4288645485
-0.0060622958 -0.062797651 0.17300001 4287196756
-0.0056523252 -0.062797651 0.17300001 4282986004
-0.0052423542 -0.062797651 0.17300001 4283051538
-0.0048323832 -0.062797651 0.17300001 4282854159
-0.0044224123 -0.062797651 0.17300001 4284959787
-0.0040124417 -0.062797651 0.17300001 4288117851
-0.0036024707 -0.062797651 0.17300001 4288248917
-0.0031925 -0.062797651 0.17300001 4288117331
-0.0027825292 -0.062797651 0.17300001 4288248403
-0.0023725582 -0.062797651 0.17300001 4288182610
-0.0019625877 -0.062797651 0.17300001 4288051020
-0.0015526167 -0.062797651 0.17300001 4288051020
-0.001142646 -0.062797651 0.17300001 4287854927
-0.00073267514 -0.062797651 0.17300001 4287854927
-0.00032270438 -0.062797651 0.17300001 4287790165
8.7266431e-05 -0.062797651 0.17300001 4287658579
0.00049723726 -0.062797651 0.17300001 4287461715
0.00090720801 -0.062797651 0.17300001 4287593301
0.0013171788 -0.062797651 0.17300001 4287396692
0.0017271497 -0.062797651 0.17300001 4287528278
0.0021247671 -0.062434655 0.17200001 4287397721
0.0025323681 -0.062434655 0.17200001 4287726686
0.0029399691 -0.062434655 0.17200001 4287857507
0.0033475703 -0.062434655 0.17200001 4286673233
0.0037551711 -0.062434655 0.17200001 4284108850
0.0041627721 -0.062434655 0.17200001 4282069267
0.0045703733 -0.062434655 0.17200001 4280888850
0.0049779741 -0.062434655 0.17200001 4280823057
0.0053855754 -0.062434655 0.17200001 4280036887
0.0057931761 -0.062434655 0.17200001 4280102680
0.0062368289 -0.062797651 0.17300001 4279777567
0.0066467994 -0.062797651 0.17300001 4279909153
0.0070567699 -0.062797651 0.17300001 4279843873
0.0074667409 -0.062797651 0.17300001 4279778080
0.007876711 -0.062797651 0.17300001 4279712287
0.008286682 -0.062797651 0.17300001 4279778080
0.0086966539 -0.062797651 0.17300001 4279712287
0.0091066239 -0.062797651 0.17300001 4279778080
0.0095165949 -0.062797651 0.17300001 4279843106
0.0099839447 -0.063160643 0.17400001 4279843106
0.010396285 -0.063160643 0.17400001 4279973922
0.010808626 -0.063160643 0.17400001 4280302887
0.011220966 -0.063160643 0.17400001 4280433959
0.011633307 -0.063160643 0.17400001 4280631338
0.012114876 -0.063523635 0.17500001 4280697133
0.012529586 -0.063523635 0.17500001 4280697133
0.012944297 -0.063523635 0.17500001 4280958761
0.013359006 -0.063523635 0.17500001 4281879863
0.013852424 -0.063886628 0.17600001 4283523393
0.014269504 -0.063886628 0.17600001 4283589186
0.014686584 -0.063886628 0.17600001 4283589438
0.015103665 -0.063886628 0.17600001 4283457852
0.015608929 -0.064249612 0.177 4283524158
0.01602838 -0.064249612 0.177 4283524158
0.016447829 -0.064249612 0.177 4283589951
0.01686728 -0.064249612 0.177 4283589951
0.017384395 -0.064612605 0.178 4283721024
0.017806213 -0.064612605 0.178 4283721024
0.018228034 -0.064612605 0.178 4283458113
0.018649854 -0.064612605 0.178 4283326527
0.019178817 -0.064975597 0.17900001 4283326787
0.019603008 -0.064975597 0.17900001 4282997822
0.020027196 -0.064975597 0.17900001 4284047434
0.020451386 -0.064975597 0.17900001 4285889638
0.020875575 -0.064975597 0.17900001 4287004012
0.021418758 -0.065338589 0.18000001 4287332977
0.021845317 -0.065338589 0.18000001 4285751379
0.022271877 -0.065338589 0.18000001 4284501312
0.022824539 -0.065701589 0.18100001 4285093449
0.023253469 -0.065701589 0.18100001 4285093449
0.023682395 -0.065701589 0.18100001 4284766026
0.024244538 -0.066064581 0.18200001 4287200367
0.024675837 -0.066064581 0.18200001 4287002988
0.025107136 -0.066064581 0.18200001 4286476644
0.025678756 -0.066427574 0.18300001 4286937447
0.026112422 -0.066427574 0.18300001 4285490001
0.026691152 -0.066790566 0.18400002 4285358154
0.027127191 -0.066790566 0.18400002 4285752912
0.027563231 -0.066790566 0.18400002 4285949008
0.028151438 -0.067153551 0.185 4286804317
0.028589843 -0.067153551 0.185 4287397487
0.029185161 -0.067516543 0.186 4287594866
-0.033635359 -0.070321374 0.19500001 4283651397
-0.029153416 -0.06743639 0.18700001 4283062851
-0.027087979 -0.066715144 0.185 4282603586
-0.026505524 -0.066354528 0.18400002 4282801217
-0.026069485 -0.066354528 0.18400002 4282735424
-0.025494134 -0.065993905 0.18300001 4282865724
-0.025060464 -0.065993905 0.18300001 4282865724
-0.024626797 -0.065993905 0.18300001 4282997824
-0.024193129 -0.065993905 0.18300001 4281879343
-0.023629626 -0.065633282 0.18200001 4281027114
-0.023198327 -0.065633282 0.18200001 4281224493
-0.022767028 -0.065633282 0.18200001 4281423925
-0.022335729 -0.065633282 0.18200001 4280963374
-0.021784076 -0.065272659 0.18100001 4280766247
-0.021355148 -0.065272659 0.18100001 4281226798
-0.020926218 -0.065272659 0.18100001 4281752111
-0.020384045 -0.064912036 0.18000001 4281949490
-0.019957485 -0.064912036 0.18000001 4282277685
-0.019422421 -0.064551413 0.17900001 4282080306
-0.018998232 -0.064551413 0.17900001 4282408757
-0.018470276 -0.06419079 0.178 4282408757
-0.018048456 -0.06419079 0.178 4282408503
-0.017626636 -0.06419079 0.178 4282211124
-0.017108161 -0.063830167 0.177 4282145331
-0.01668871 -0.063830167 0.177 4282342710
-0.016269261 -0.063830167 0.177 4282734902
-0.015849812 -0.063830167 0.177 4284248141
-0.015343185 -0.063469552 0.17600001 4285694814
-0.014926106 -0.063469552 0.17600001 4283194680
-0.014509025 -0.063469552 0.17600001 4283127084
-0.014091945 -0.063469552 0.17600001 4283258670
-0.013674865 -0.063469552 0.17600001 4287661411
-0.013257784 -0.063469552 0.17600001 4287595618
-0.012840705 -0.063469552 0.17600001 4287724635
-0.012353036 -0.063108929 0.17500001 4287724635
-0.011938325 -0.063108929 0.17500001 4287922016
-0.011523615 -0.063108929 0.17500001 4287593051
-0.011108904 -0.063108929 0.17500001 4287330399
-0.010694195 -0.063108929 0.17500001 4287527778
-0.010220744 -0.062748305 0.17400001 4287724383
-0.0098084025 -0.062748305 0.17400001 4287592797
-0.0093960622 -0.062748305 0.17400001 4287789145
-0.008983722 -0.062748305 0.17400001 4287789145
-0.0085713817 -0.062748305 0.17400001 4287789145
-0.0081590414 -0.062748305 0.17400001 4287854938
-0.0077466997 -0.062748305 0.17400001 4287131987
-0.0073343595 -0.062748305 0.17400001 4287658331
-0.0069220187 -0.062748305 0.17400001 4288052835
-0.0064722663 -0.062387679 0.17300001 4284894771
-0.0060622958 -0.062387679 0.17300001 4283644186
-0.0056523252 -0.062387679 0.17300001 4283709979
-0.0052423542 -0.062387679 0.17300001 4283906847
-0.0048323832 -0.062387679 0.17300001 4283183124
-0.0044224123 -0.062387679 0.17300001 4284564005
-0.0040124417 -0.062387679 0.17300001 4288445792
-0.0036024707 -0.062387679 0.17300001 4287985491
-0.0031925 -0.062387679 0.17300001 4287656526
-0.0027825292 -0.062387679 0.17300001 4287590983
-0.0023725582 -0.062387679 0.17300001 4287590983
-0.0019625877 -0.062387679 0.17300001 4287722055
-0.0015526167 -0.062387679 0.17300001 4288051020
-0.001142646 -0.062387679 0.17300001 4287920722
-0.00073267514 -0.062387679 0.17300001 4288118101
-0.00032270438 -0.062387679 0.17300001 4288184153
8.7266431e-05 -0.062387679 0.17300001 4288118360
0.00049723726 -0.062387679 0.17300001 4287724374
0.00090720801 -0.062387679 0.17300001 4287658581
0.0013171788 -0.062387679 0.17300001 4287724887
0.0017271497 -0.062387679 0.17300001 4287922266
0.0021247671 -0.062027056 0.17200001 4287725657
0.0025323681 -0.062027056 0.17200001 4287594071
0.0029399691 -0.062027056 0.17200001 4287528280
0.0033475703 -0.062027056 0.17200001 4287857245
0.0037551711 -0.062027056 0.17200001 4288252265
0.0041627721 -0.062027056 0.17200001 4287725921
0.0045703733 -0.062027056 0.17200001 4286280019
0.0049779741 -0.062027056 0.17200001 4284569401
0.0053855754 -0.062027056 0.17200001 4282598441
0.0057931761 -0.062027056 0.17200001 4281743132
0.0062007774 -0.062027056 0.17200001 4281286692
0.0066467994 -0.062387679 0.17300001 4281155106
0.0070567699 -0.062387679 0.17300001 4280435747
0.0074667409 -0.062387679 0.17300001 4280764712
0.007876711 -0.062387679 0.17300001 4280699434
0.008286682 -0.062387679 0.17300001 4280370469
0.0086966539 -0.062387679 0.17300001 4279975457
0.0091066239 -0.062387679 0.17300001 4279975457
0.0095165949 -0.062387679 0.17300001 4279909151
0.0099265659 -0.062387679 0.17300001 4279317014
0.010396285 -0.062748305 0.17400001 4279382039
0.010808626 -0.062748305 0.17400001 4279842590
0.011220966 -0.062748305 0.17400001 4280236834
0.011633307 -0.062748305 0.17400001 4280434213
0.012114876 -0.063108929 0.17500001 4280696618
0.012529586 -0.063108929 0.17500001 4280696618
0.012944297 -0.063108929 0.17500001 4280958243
0.013359006 -0.063108929 0.17500001 4282734654
0.013852424 -0.063469552 0.17600001 4283391805
0.014269504 -0.063469552 0.17600001 4283457598
0.014686584 -0.063469552 0.17600001 4283523645
0.015103665 -0.063469552 0.17600001 4283523645
0.015608929 -0.063830167 0.177 4283524158
0.01602838 -0.063830167 0.177 4283524158
0.016447829 -0.063830167 0.177 4283458365
0.01686728 -0.063830167 0.177 4283458365
0.017384395 -0.06419079 0.178 4283458365
0.017806213 -0.06419079 0.178 4283524158
0.018228034 -0.06419079 0.178 4283194939
0.018649854 -0.06419079 0.178 4282997560
0.019178817 -0.064551413 0.17900001 4282866236
0.019603008 -0.064551413 0.17900001 4282603064
0.020027196 -0.064551413 0.17900001 4283520320
0.020451386 -0.064551413 0.17900001 4286152040
0.020875575 -0.064551413 0.17900001 4287003242
0.021418758 -0.064912036 0.18000001 4287069035
0.021845317 -0.064912036 0.18000001 4287659376
0.022271877 -0.064912036 0.18000001 4286080344
0.022698436 -0.064912036 0.18000001 4285422927
0.023253469 -0.065272659 0.18100001 4285488720
0.023682395 -0.065272659 0.18100001 4284699720
0.024244538 -0.065633282 0.18200001 4286739303
0.024675837 -0.065633282 0.18200001 4286345576
0.025107136 -0.065633282 0.18200001 4283713856
0.025678756 -0.065993905 0.18300001 4286542437
0.026112422 -0.065993905 0.18300001 4287529332
0.026546091 -0.065993905 0.18300001 4287134824
0.027127191 -0.066354528 0.18400002 4286476894
0.027563231 -0.066354528 0.18400002 4284698687
0.027999269 -0.066354528 0.18400002 4284961859
0.028589843 -0.066715144 0.185 4284633157
0.029028252 -0.066715144 0.185 4286343775
-0.033462871 -0.069501013 0.19400001 4283848006
-0.02694156 -0.06591849 0.18400002 4282800195
-0.026505524 -0.06591849 0.18400002 4282866240
-0.026069485 -0.06591849 0.18400002 4282537275
-0.025494134 -0.065560237 0.18300001 4282603066
-0.025060464 -0.065560237 0.18300001 4282932031
-0.024626797 -0.065560237 0.18300001 4282603836
-0.024193129 -0.065560237 0.18300001 4281682734
-0.023629626 -0.065201983 0.18200001 4281027114
-0.023198327 -0.065201983 0.18200001 4281356079
-0.022767028 -0.065201983 0.18200001 4281423925
-0.022335729 -0.065201983 0.18200001 4280963374
-0.021784076 -0.064843729 0.18100001 4280765993
-0.021355148 -0.064843729 0.18100001 4281358130
-0.020926218 -0.064843729 0.18100001 4281424177
-0.020384045 -0.064485475 0.18000001 4281555763
-0.019957485 -0.064485475 0.18000001 4282015544
-0.019422421 -0.064127222 0.17900001 4281883958
-0.018998232 -0.064127222 0.17900001 4282146617
-0.018470276 -0.063768968 0.178 4282146617
-0.018048456 -0.063768968 0.178 4282014259
-0.017626636 -0.063768968 0.178 4282080052
-0.017108161 -0.063410714 0.177 4282211124
-0.01668871 -0.063410714 0.177 4282342710
-0.016269261 -0.063410714 0.177 4283194941
-0.015849812 -0.063410714 0.177 4285892454
-0.015343185 -0.063052468 0.17600001 4286351974
-0.014926106 -0.063052468 0.17600001 4283522875
-0.014509025 -0.063052468 0.17600001 4283455279
-0.014091945 -0.063052468 0.17600001 4283981623
-0.013674865 -0.063052468 0.17600001 4287660380
-0.013257784 -0.063052468 0.17600001 4287791966
-0.012840705 -0.063052468 0.17600001 4288052569
-0.012353036 -0.062694214 0.17500001 4287920983
-0.011938325 -0.062694214 0.17500001 4288118364
-0.011523615 -0.062694214 0.17500001 4287920985
-0.011108904 -0.062694214 0.17500001 4287724124
-0.010694195 -0.062694214 0.17500001 4287724124
-0.010220744 -0.062335957 0.17400001 4288052319
-0.0098084025 -0.062335957 0.17400001 4287920733
-0.0093960622 -0.062335957 0.17400001 4287986011
-0.008983722 -0.062335957 0.17400001 4288117597
-0.0085713817 -0.062335957 0.17400001 4287855192
-0.0081590414 -0.062335957 0.17400001 4287920985
-0.0077466997 -0.062335957 0.17400001 4287854938
-0.0073343595 -0.062335957 0.17400001 4288249696
-0.0068822373 -0.061977707 0.17300001 4286341440
-0.0064722663 -0.061977707 0.17300001 4283512341
-0.0060622958 -0.061977707 0.17300001 4284695845
-0.0056523252 -0.061977707 0.17300001 4284366880
-0.0052423542 -0.061977707 0.17300001 4284104224
-0.0048323832 -0.061977707 0.17300001 4283577880
-0.0044224123 -0.061977707 0.17300001 4285354293
-0.0040124417 -0.061977707 0.17300001 4287262290
-0.0036024707 -0.061977707 0.17300001 4286802504
-0.0031925 -0.061977707 0.17300001 4287197262
-0.0027825292 -0.061977707 0.17300001 4287723341
-0.0023725582 -0.061977707 0.17300001 4287723341
-0.0019625877 -0.061977707 0.17300001 4288051536
-0.0015526167 -0.061977707 0.17300001 4286669883
-0.001142646 -0.061977707 0.17300001 4283249165
-0.00073267514 -0.061977707 0.17300001 4282788614
-0.00032270438 -0.061977707 0.17300001 4283249419
8.7266431e-05 -0.061977707 0.17300001 4284894244
0.00049723726 -0.061977707 0.17300001 4287854929
0.00090720801 -0.061977707 0.17300001 4287986515
0.0013171788 -0.061977707 0.17300001 4287987544
0.0017271497 -0.061977707 0.17300001 4288448095
0.0021247671 -0.061619453 0.17200001 4288580194
0.0025323681 -0.061619453 0.17200001 4288119643
0.0029399691 -0.061619453 0.17200001 4287724887
0.0033475703 -0.061619453 0.17200001 4287724887
0.0037551711 -0.061619453 0.17200001 4287988059
0.0041627721 -0.061619453 0.17200001 4287922266
0.0045703733 -0.061619453 0.17200001 4288448358
0.0049779741 -0.061619453 0.17200001 4288777323
0.0053855754 -0.061619453 0.17200001 4288384882
0.0057931761 -0.061619453 0.17200001 4287003229
0.0062007774 -0.061619453 0.17200001 4284572999
0.0066083786 -0.061619453 0.17200001 4283915069
0.0070567699 -0.061977707 0.17300001 4282539837
0.0074667409 -0.061977707 0.17300001 4282408251
0.007876711 -0.061977707 0.17300001 4282146878
0.008286682 -0.061977707 0.17300001 4282081085
0.0086966539 -0.061977707 0.17300001 4281817915
0.0091066239 -0.061977707 0.17300001 4281686329
0.0095165949 -0.061977707 0.17300001 4281685562
0.0099265659 -0.061977707 0.17300001 4281685562
0.010336536 -0.061977707 0.17300001 4281553206
0.010808626 -0.062335957 0.17400001 4280829483
0.011220966 -0.062335957 0.17400001 4280303139
0.011633307 -0.062335957 0.17400001 4280039967
0.012045648 -0.062335957 0.17400001 4280105246
0.012529586 -0.062694214 0.17500001 4280302625
0.012944297 -0.062694214 0.17500001 4282470964
0.013359006 -0.062694214 0.17500001 4283326273
0.013773717 -0.062694214 0.17500001 4283129398
0.014269504 -0.063052468 0.17600001 4283195191
0.014686584 -0.063052468 0.17600001 4283457850
0.015103665 -0.063052468 0.17600001 4283457850
0.015608929 -0.063410714 0.177 4283392570
0.01602838 -0.063410714 0.177 4283063605
0.016447829 -0.063410714 0.177 4282932535
0.01686728 -0.063410714 0.177 4282866742
0.017384395 -0.063768968 0.178 4282800695
0.017806213 -0.063768968 0.178 4282537523
0.018228034 -0.063768968 0.178 4282471732
0.018649854 -0.063768968 0.178 4282471732
0.019071674 -0.063768968 0.178 4282471478
0.019603008 -0.064127222 0.17900001 4282339892
0.020027196 -0.064127222 0.17900001 4283257148
0.020451386 -0.064127222 0.17900001 4286020454
0.020875575 -0.064127222 0.17900001 4287068522
0.021299765 -0.064127222 0.17900001 4287002729
0.021845317 -0.064485475 0.18000001 4286935653
0.022271877 -0.064485475 0.18000001 4287330411
0.022698436 -0.064485475 0.18000001 4287528303
0.023253469 -0.064843729 0.18100001 4286607201
0.023682395 -0.064843729 0.18100001 4284765513
0.024111325 -0.064843729 0.18100001 4285555029
0.024675837 -0.065201983 0.18200001 4286609002
0.025107136 -0.065201983 0.18200001 4283187766
0.025678756 -0.065560237 0.18300001 4283779903
0.026112422 -0.065560237 0.18300001 4286609002
0.026546091 -0.065560237 0.18300001 4287463793
0.027127191 -0.06591849 0.18400002 4287595379
0.027563231 -0.06591849 0.18400002 4286212441
0.027999269 -0.06591849 0.18400002 4284436030
0.028589843 -0.066276737 0.185 4283909688
0.029028252 -0.066276737 0.185 4284567618
-0.033462871 -0.069041274 0.19400001 4284308557
-0.033003133 -0.069041274 0.19400001 4286808691
-0.02694156 -0.065482453 0.18400002 4283062338
-0.026505524 -0.065482453 0.18400002 4283063105
-0.026069485 -0.065482453 0.18400002 4282602554
-0.025494134 -0.065126568 0.18300001 4283326789
-0.025060464 -0.065126568 0.18300001 4282932031
-0.024626797 -0.065126568 0.18300001 4281814833
-0.024193129 -0.065126568 0.18300001 4281749040
-0.023629626 -0.064770684 0.18200001 4280896298
-0.023198327 -0.064770684 0.18200001 4281356849
-0.022767028 -0.064770684 0.18200001 4281423925
-0.022335729 -0.064770684 0.18200001 4281094960
-0.021784076 -0.064414799 0.18100001 4281029678
-0.021355148 -0.064414799 0.18100001 4281292850
-0.020810604 -0.064058915 0.18000001 4281358897
-0.020384045 -0.064058915 0.18000001 4281490483
-0.019957485 -0.064058915 0.18000001 4281753142
-0.019422421 -0.06370303 0.17900001 4281753142
-0.018998232 -0.06370303 0.17900001 4282081337
-0.018470276 -0.063347146 0.178 4282081337
-0.018048456 -0.063347146 0.178 4282146363
-0.017626636 -0.063347146 0.178 4281620019
-0.017108161 -0.062991269 0.177 4282145079
-0.01668871 -0.062991269 0.177 4282342458
-0.016269261 -0.062991269 0.177 4282076974
-0.015849812 -0.062991269 0.177 4283656006
-0.015343185 -0.062635385 0.17600001 4285693531
-0.014926106 -0.062635385 0.17600001 4283653948
-0.014509025 -0.062635385 0.17600001 4283716909
-0.014091945 -0.062635385 0.17600001 4283453737
-0.013674865 -0.062635385 0.17600001 4286606406
-0.013257784 -0.062635385 0.17600001 4287724887
-0.012767746 -0.062279504 0.17500001 4287920468
-0.012353036 -0.062279504 0.17500001 4287986261
-0.011938325 -0.062279504 0.17500001 4288314456
-0.011523615 -0.062279504 0.17500001 4288248663
-0.011108904 -0.062279504 0.17500001 4288248665
-0.010633084 -0.061923619 0.17400001 4288314458
-0.010220744 -0.061923619 0.17400001 4288314460
-0.0098084025 -0.061923619 0.17400001 4288248667
-0.0093960622 -0.061923619 0.17400001 4288117081
-0.008983722 -0.061923619 0.17400001 4288248667
-0.0085713817 -0.061923619 0.17400001 4288117851
-0.0081590414 -0.061923619 0.17400001 4288381023
-0.0077021783 -0.061567735 0.17300001 4288117851
-0.0072922078 -0.061567735 0.17300001 4284762408
-0.0068822373 -0.061567735 0.17300001 4283577362
-0.0064722663 -0.061567735 0.17300001 4283314190
-0.0060622958 -0.061567735 0.17300001 4283840536
-0.0056523252 -0.061567735 0.17300001 4284169501
-0.0052423542 -0.061567735 0.17300001 4283774489
-0.0048323832 -0.061567735 0.17300001 4284169247
-0.0044224123 -0.061567735 0.17300001 4288380769
-0.0040124417 -0.061567735 0.17300001 4288314976
-0.0036024707 -0.061567735 0.17300001 4287855188
-0.0031925 -0.061567735 0.17300001 4287723602
-0.0027825292 -0.061567735 0.17300001 4287658063
-0.0023725582 -0.061567735 0.17300001 4286934340
-0.0019625877 -0.061567735 0.17300001 4285815607
-0.0015526167 -0.061567735 0.17300001 4283973403
-0.001142646 -0.061567735 0.17300001 4283250198
-0.00073267514 -0.061567735 0.17300001 4283579163
-0.00032270438 -0.061567735 0.17300001 4283183635
8.7266431e-05 -0.061567735 0.17300001 4284367909
0.00049723726 -0.061567735 0.17300001 4287657300
0.00090720801 -0.061567735 0.17300001 4288183644
0.0013171788 -0.061567735 0.17300001 4288315743
0.0017271497 -0.061567735 0.17300001 4287789399
0.0021371203 -0.061567735 0.17300001 4287328846
0.0025470911 -0.061567735 0.17300001 4288052569
0.0029399691 -0.061211854 0.17200001 4287790165
0.0033475703 -0.061211854 0.17200001 4287592786
0.0037551711 -0.061211854 0.17200001 4287658833
0.0041627721 -0.061211854 0.17200001 4287987798
0.0045703733 -0.061211854 0.17200001 4288381532
0.0049779741 -0.061211854 0.17200001 4288513118
0.0053855754 -0.061211854 0.17200001 4288382567
0.0057931761 -0.061211854 0.17200001 4288382567
0.0062007774 -0.061211854 0.17200001 4287990639
0.0066083786 -0.061211854 0.17200001 4285293126
0.0070159794 -0.061211854 0.17200001 4281482527
0.0074667409 -0.061567735 0.17300001 4281877285
0.007876711 -0.061567735 0.17300001 4281091880
0.008286682 -0.061567735 0.17300001 4281091880
0.0086966539 -0.061567735 0.17300001 4281092909
0.0091066239 -0.061567735 0.17300001 4281421874
0.0095165949 -0.061567735 0.17300001 4281750839
0.0099265659 -0.061567735 0.17300001 4282079804
0.010336536 -0.061567735 0.17300001 4282079550
0.010808626 -0.061923619 0.17400001 4282276929
0.011220966 -0.061923619 0.17400001 4282276929
0.011633307 -0.061923619 0.17400001 4282079550
0.012045648 -0.061923619 0.17400001 4281881657
0.012529586 -0.062279504 0.17500001 4282013243
0.012944297 -0.062279504 0.17500001 4283130178
0.013359006 -0.062279504 0.17500001 4282801213
0.013773717 -0.062279504 0.17500001 4282998328
0.014269504 -0.062635385 0.17600001 4282998328
0.014686584 -0.062635385 0.17600001 4283063605
0.015103665 -0.062635385 0.17600001 4282997812
0.015608929 -0.062991269 0.177 4282800949
0.01602838 -0.062991269 0.177 4282603570
0.016447829 -0.062991269 0.177 4282537523
0.01686728 -0.062991269 0.177 4282603316
0.017384395 -0.063347146 0.178 4282603318
0.017806213 -0.063347146 0.178 4282537525
0.018228034 -0.063347146 0.178 4282537525
0.018649854 -0.063347146 0.178 4282537525
0.019071674 -0.063347146 0.178 4282603066
0.019603008 -0.06370303 0.17900001 4282405687
0.020027196 -0.06370303 0.17900001 4283191355
0.020451386 -0.06370303 0.17900001 4286152040
0.020875575 -0.06370303 0.17900001 4287068522
0.021299765 -0.06370303 0.17900001 4286673764
0.021845317 -0.064058915 0.18000001 4285751379
0.022271877 -0.064058915 0.18000001 4286277723
0.022698436 -0.064058915 0.18000001 4286409822
0.023124997 -0.064058915 0.18000001 4286936166
0.023682395 -0.064414799 0.18100001 4287200621
0.024111325 -0.064414799 0.18100001 4286411105
0.024675837 -0.064770684 0.18200001 4286476646
0.025107136 -0.064770684 0.18200001 4285555544
0.025538435 -0.064770684 0.18200001 4284371270
0.026112422 -0.065126568 0.18300001 4284239684
0.026546091 -0.065126568 0.18300001 4284502595
0.027127191 -0.065482453 0.18400002 4286542178
0.027563231 -0.065482453 0.18400002 4287857264
0.027999269 -0.065482453 0.18400002 4286936162
0.028589843 -0.065838329 0.185 4284962376
0.029028252 -0.065838329 0.185 4284107067
-0.034097467 -0.068935052 0.19500001 4284571479
-0.033462871 -0.068581536 0.19400001 4284900181
-0.033003133 -0.068581536 0.19400001 4287071350
-0.02694156 -0.065046407 0.18400002 4283455297
-0.026505524 -0.065046407 0.18400002 4283324992
-0.026069485 -0.065046407 0.18400002 4282930234
-0.025494134 -0.064692892 0.18300001 4283786826
-0.025060464 -0.064692892 0.18300001 4283589447
-0.024626797 -0.064692892 0.18300001 4281684017
-0.024060925 -0.064339384 0.18200001 4281552431
-0.023629626 -0.064339384 0.18200001 4280896811
-0.023198327 -0.064339384 0.18200001 4281094190
-0.022767028 -0.064339384 0.18200001 4281423923
-0.022213005 -0.063985869 0.18100001 4281423923
-0.021784076 -0.063985869 0.18100001 4281292850
-0.021355148 -0.063985869 0.18100001 4281358643
-0.020810604 -0.063632354 0.18000001 4281358897
-0.020384045 -0.063632354 0.18000001 4281556276
-0.019957485 -0.063632354 0.18000001 4281687862
-0.019422421 -0.063278839 0.17900001 4281622069
-0.018998232 -0.063278839 0.17900001 4282081083
-0.018470276 -0.062925324 0.178 4282146876
-0.018048456 -0.062925324 0.178 4282803525
-0.017626636 -0.062925324 0.178 4281816630
-0.017108161 -0.062571809 0.177 4281814833
-0.01668871 -0.062571809 0.177 4282078005
-0.016269261 -0.062571809 0.177 4282209078
-0.015760265 -0.062218305 0.17600001 4282340664
-0.015343185 -0.062218305 0.17600001 4282667053
-0.014926106 -0.062218305 0.17600001 4282798639
-0.014509025 -0.062218305 0.17600001 4284175663
-0.014091945 -0.062218305 0.17600001 4284307249
-0.013674865 -0.062218305 0.17600001 4285486642
-0.013257784 -0.062218305 0.17600001 4287657811
-0.012767746 -0.06186479 0.17500001 4288051284
-0.012353036 -0.06186479 0.17500001 4288117077
-0.011938325 -0.06186479 0.17500001 4288248401
-0.011523615 -0.06186479 0.17500001 4288248401
-0.011045424 -0.061511274 0.17400001 4288248401
-0.010633084 -0.061511274 0.17400001 4288379987
-0.010220744 -0.061511274 0.17400001 4288116817
-0.0098084025 -0.061511274 0.17400001 4288248403
-0.0093960622 -0.061511274 0.17400001 4288051284
-0.008983722 -0.061511274 0.17400001 4288051284
-0.0085713817 -0.061511274 0.17400001 4288446816
-0.0081121502 -0.061157763 0.17300001 4287723093
-0.0077021783 -0.061157763 0.17300001 4284893224
-0.0072922078 -0.061157763 0.17300001 4282656262
-0.0068822373 -0.061157763 0.17300001 4283380235
-0.0064722663 -0.061157763 0.17300001 4286011955
-0.0060622958 -0.061157763 0.17300001 4283577360
-0.0056523252 -0.061157763 0.17300001 4283577360
-0.0052423542 -0.061157763 0.17300001 4283050506
-0.0048323832 -0.061157763 0.17300001 4285682226
-0.0044224123 -0.061157763 0.17300001 4288642907
-0.0040124417 -0.061157763 0.17300001 4288248149
-0.0036024707 -0.061157763 0.17300001 4287854929
-0.0031925 -0.061157763 0.17300001 4288381273
-0.0027825292 -0.061157763 0.17300001 4288052567
-0.0023725582 -0.061157763 0.17300001 4285947191
-0.0019625877 -0.061157763 0.17300001 4283974175
-0.0015526167 -0.061157763 0.17300001 4284237347
-0.001142646 -0.061157763 0.17300001 4284369194
-0.00073267514 -0.061157763 0.17300001 4283711264
-0.00032270438 -0.061157763 0.17300001 4283052569
8.7266431e-05 -0.061157763 0.17300001 4285881668
0.00049723726 -0.061157763 0.17300001 4287854686
0.00090720801 -0.061157763 0.17300001 4288249444
0.0013171788 -0.061157763 0.17300001 4284498214
0.0017271497 -0.061157763 0.17300001 4282787596
0.0021371203 -0.061157763 0.17300001 4282328326
0.0025470911 -0.061157763 0.17300001 4283841565
0.0029570619 -0.061157763 0.17300001 4287263823
0.0033670329 -0.061157763 0.17300001 4287790167
0.0037770036 -0.061157763 0.17300001 4287789647
0.0041869744 -0.061157763 0.17300001 4287855440
0.0045703733 -0.060804248 0.17200001 4287789136
0.0049779741 -0.060804248 0.17200001 4288183894
0.0053855754 -0.060804248 0.17200001 4288119134
0.0057931761 -0.060804248 0.17200001 4288184927
0.0062007774 -0.060804248 0.17200001 4288383083
0.0066083786 -0.060804248 0.17200001 4288054118
0.0070159794 -0.060804248 0.17200001 4283780403
0.0074235802 -0.060804248 0.17200001 4281280269
0.007876711 -0.061157763 0.17300001 4280626964
0.008286682 -0.061157763 0.17300001 4280429585
0.0086966539 -0.061157763 0.17300001 4279841045
0.0091066239 -0.061157763 0.17300001 4280170010
0.0095165949 -0.061157763 0.17300001 4280630307
0.0099265659 -0.061157763 0.17300001 4280498721
0.010336536 -0.061157763 0.17300001 4280763176
0.010746508 -0.061157763 0.17300001 4281618485
0.011220966 -0.061511274 0.17400001 4282079550
0.011633307 -0.061511274 0.17400001 4282276929
0.012045648 -0.061511274 0.17400001 4282408515
0.012457988 -0.061511274 0.17400001 4282474308
0.012944297 -0.06186479 0.17500001 4282735933
0.013359006 -0.06186479 0.17500001 4282670140
0.013773717 -0.06186479 0.17500001 4282735926
0.014269504 -0.062218305 0.17600001 4282670133
0.014686584 -0.062218305 0.17600001 4282800949
0.015103665 -0.062218305 0.17600001 4282735156
0.015608929 -0.062571809 0.177 4282472754
0.01602838 -0.062571809 0.177 4282472754
0.016447829 -0.062571809 0.177 4282406707
0.01686728 -0.062571809 0.177 4282472500
0.017384395 -0.062925324 0.178 4282406707
0.017806213 -0.062925324 0.178 4282340914
0.018228034 -0.062925324 0.178 4282471478
0.018649854 -0.062925324 0.178 4282274099
0.019071674 -0.062925324 0.178 4281681200
0.019493494 -0.062925324 0.178 4281418028
0.020027196 -0.063278839 0.17900001 4282730804
0.020451386 -0.063278839 0.17900001 4286217833
0.020875575 -0.063278839 0.17900001 4287003242
0.021299765 -0.063278839 0.17900001 4286740070
0.021723954 -0.063278839 0.17900001 4286803551
0.022271877 -0.063632354 0.18000001 4286606172
0.022698436 -0.063632354 0.18000001 4286212441
0.023124997 -0.063632354 0.18000001 4286738785
0.023682395 -0.063985869 0.18100001 4285884248
0.024111325 -0.063985869 0.18100001 4286279006
0.024675837 -0.064339384 0.18200001 4286411105
0.025107136 -0.064339384 0.18200001 4287069035
0.025538435 -0.064339384 0.18200001 4285094991
0.026112422 -0.064692892 0.18300001 4284305475
0.026546091 -0.064692892 0.18300001 4283647799
0.027127191 -0.065046407 0.18400002 4283845178
0.027563231 -0.065046407 0.18400002 4286936164
0.027999269 -0.065046407 0.18400002 4287330922
0.028589843 -0.065399915 0.185 4287725678
0.029028252 -0.065399915 0.185 4286344025
0.029625939 -0.06575343 0.186 4284239423
-0.034097467 -0.068472944 0.19500001 4284702550
-0.033462871 -0.068121806 0.19400001 4285886306
-0.032833014 -0.06777066 0.193 4287070580
-0.030521631 -0.06671723 0.19000001 4286937449
-0.02694156 -0.06461037 0.18400002 4285031245
-0.026505524 -0.06461037 0.18400002 4283717438
-0.025927803 -0.064259231 0.18300001 4283914817
-0.025494134 -0.064259231 0.18300001 4284048200
-0.025060464 -0.064259231 0.18300001 4284837716
-0.024626797 -0.064259231 0.18300001 4281684017
-0.024060925 -0.063908085 0.18200001 4281618224
-0.023629626 -0.063908085 0.18200001 4281160753
-0.023198327 -0.063908085 0.18200001 4281226546
-0.022767028 -0.063908085 0.18200001 4281489716
-0.022213005 -0.063556939 0.18100001 4281489716
-0.021784076 -0.063556939 0.18100001 4281423923
-0.021355148 -0.063556939 0.18100001 4281555509
-0.020810604 -0.063205793 0.18000001 4281490483
-0.020384045 -0.063205793 0.18000001 4281424690
-0.019957485 -0.063205793 0.18000001 4281622069
-0.019422421 -0.062854655 0.17900001 4281622069
-0.018998232 -0.062854655 0.17900001 4282081085
-0.018470276 -0.062503509 0.178 4282475843
-0.018048456 -0.062503509 0.178 4284118360
-0.017626636 -0.062503509 0.178 4284513118
-0.017108161 -0.062152363 0.177 4283656785
-0.01668871 -0.062152363 0.177 4281682995
-0.016269261 -0.062152363 0.177 4282077492
-0.015760265 -0.061801225 0.17600001 4282143285
-0.015343185 -0.061801225 0.17600001 4282797869
-0.014926106 -0.061801225 0.17600001 4282929455
-0.014509025 -0.061801225 0.17600001 4287134295
-0.014091945 -0.061801225 0.17600001 4287858018
-0.013674865 -0.061801225 0.17600001 4287855188
-0.013257784 -0.061801225 0.17600001 4288052567
-0.012767746 -0.061450083 0.17500001 4288248917
-0.012353036 -0.061450083 0.17500001 4288314710
-0.011938325 -0.061450083 0.17500001 4288248401
-0.011523615 -0.061450083 0.17500001 4288182608
-0.011045424 -0.061098937 0.17400001 4288116815
-0.010633084 -0.061098937 0.17400001 4288051022
-0.010220744 -0.061098937 0.17400001 4288116815
-0.0098084025 -0.061098937 0.17400001 4288116815
-0.0093960622 -0.061098937 0.17400001 4287854159
-0.0089320913 -0.060747795 0.17300001 4288248917
-0.0085221203 -0.060747795 0.17300001 4285748533
-0.0081121502 -0.060747795 0.17300001 4284630052
-0.0077021783 -0.060747795 0.17300001 4283116811
-0.0072922078 -0.060747795 0.17300001 4282787846
-0.0068822373 -0.060747795 0.17300001 4287064641
-0.0064722663 -0.060747795 0.17300001 4286867262
-0.0060622958 -0.060747795 0.17300001 4283840272
-0.0056523252 -0.060747795 0.17300001 4284169237
-0.0052423542 -0.060747795 0.17300001 4283116297
-0.0048323832 -0.060747795 0.17300001 4286866498
-0.0044224123 -0.060747795 0.17300001 4287853905
-0.0040124417 -0.060747795 0.17300001 4287919698
-0.0036024707 -0.060747795 0.17300001 4288248663
-0.0031925 -0.060747795 0.17300001 4286932803
-0.0027825292 -0.060747795 0.17300001 4284893222
-0.0023725582 -0.060747795 0.17300001 4283840534
-0.0019625877 -0.060747795 0.17300001 4283578647
-0.0015526167 -0.060747795 0.17300001 4283447061
-0.001142646 -0.060747795 0.17300001 4283973921
-0.00073267514 -0.060747795 0.17300001 4283842335
-0.00032270438 -0.060747795 0.17300001 4283052569
8.7266431e-05 -0.060747795 0.17300001 4285684289
0.00049723726 -0.060747795 0.17300001 4287394135
0.00090720801 -0.060747795 0.17300001 4286538826
0.0013171788 -0.060747795 0.17300001 4282656010
0.0017271497 -0.060747795 0.17300001 4282261252
0.0021371203 -0.060747795 0.17300001 4282722571
0.0025470911 -0.060747795 0.17300001 4282656778
0.0029570619 -0.060747795 0.17300001 4283512341
0.0033670329 -0.060747795 0.17300001 4287854679
0.0037770036 -0.060747795 0.17300001 4287985491
0.0041869744 -0.060747795 0.17300001 4287919698
0.0045969454 -0.060747795 0.17300001 4287788882
0.0050069159 -0.060747795 0.17300001 4287986261
0.0054168869 -0.060747795 0.17300001 4287724374
0.0058268574 -0.060747795 0.17300001 4287921753
0.0062007774 -0.060396649 0.17200001 4287922014
0.0066083786 -0.060396649 0.17200001 4288119393
0.0070159794 -0.060396649 0.17200001 4287198039
0.0074235802 -0.060396649 0.17200001 4283053080
0.0078311814 -0.060396649 0.17200001 4281805582
0.0082387822 -0.060396649 0.17200001 4281673996
0.0086966539 -0.060747795 0.17300001 4280888593
0.0091066239 -0.060747795 0.17300001 4281217558
0.0095165949 -0.060747795 0.17300001 4281087519
0.0099265659 -0.060747795 0.17300001 4280890140
0.010336536 -0.060747795 0.17300001 4280564001
0.010746508 -0.060747795 0.17300001 4281024552
0.011156478 -0.060747795 0.17300001 4280500006
0.011633307 -0.061098937 0.17400001 4280500006
0.012045648 -0.061098937 0.17400001 4281421108
0.012457988 -0.061098937 0.17400001 4281947452
0.012944297 -0.061450083 0.17500001 4282342462
0.013359006 -0.061450083 0.17500001 4282539841
0.013773717 -0.061450083 0.17500001 4282539578
0.014269504 -0.061801225 0.17600001 4282539578
0.014686584 -0.061801225 0.17600001 4282670133
0.015103665 -0.061801225 0.17600001 4282604340
0.015520744 -0.061801225 0.17600001 4282472754
0.01602838 -0.062152363 0.177 4282604340
0.016447829 -0.062152363 0.177 4282472754
0.01686728 -0.062152363 0.177 4282275375
0.017286729 -0.062152363 0.177 4282998076
0.017806213 -0.062503509 0.178 4282603318
0.018228034 -0.062503509 0.178 4281483558
0.018649854 -0.062503509 0.178 4281286179
0.019071674 -0.062503509 0.178 4281351722
0.019493494 -0.062503509 0.178 4281285929
0.019915313 -0.062503509 0.178 4282927929
0.020451386 -0.062854655 0.17900001 4285954407
0.020875575 -0.062854655 0.17900001 4286936934
0.021299765 -0.062854655 0.17900001 4286739555
0.021723954 -0.062854655 0.17900001 4286080342
0.022271877 -0.063205793 0.18000001 4286277721
0.022698436 -0.063205793 0.18000001 4286344025
0.023124997 -0.063205793 0.18000001 4287067748
0.023682395 -0.063556939 0.18100001 4286870371
0.024111325 -0.063556939 0.18100001 4285949269
0.024540255 -0.063556939 0.18100001 4286146650
0.025107136 -0.063908085 0.18200001 4287067752
0.025538435 -0.063908085 0.18200001 4287133545
0.026112422 -0.064259231 0.18300001 4286475615
0.026546091 -0.064259231 0.18300001 4284370239
0.027127191 -0.06461037 0.18400002 4283843895
0.027563231 -0.06461037 0.18400002 4284172345
0.027999269 -0.06461037 0.18400002 4284698689
0.028589843 -0.064961508 0.185 4286804576
0.029028252 -0.064961508 0.185 4287988850
-0.033462871 -0.067662068 0.19400001 4286806895
-0.027377598 -0.064174339 0.18400002 4286411871
-0.02694156 -0.064174339 0.18400002 4286411871
-0.026505524 -0.064174339 0.18400002 4285622355
-0.025927803 -0.063825563 0.18300001 4285359183
-0.025494134 -0.063825563 0.18300001 4284506184
-0.025060464 -0.063825563 0.18300001 4285690458
-0.024626797 -0.063825563 0.18300001 4281814831
-0.024060925 -0.063476786 0.18200001 4281617452
-0.023629626 -0.063476786 0.18200001 4281621304
-0.023198327 -0.063476786 0.18200001 4281489718
-0.022767028 -0.063476786 0.18200001 4281489716
-0.022213005 -0.063128017 0.18100001 4281489716
-0.021784076 -0.063128017 0.18100001 4281423923
-0.021355148 -0.063128017 0.18100001 4281555509
-0.020810604 -0.06277924 0.18000001 4281490483
-0.020384045 -0.06277924 0.18000001 4281424690
-0.019957485 -0.06277924 0.18000001 4281819448
-0.018998232 -0.062430464 0.17900001 4282146365
-0.018470276 -0.062081691 0.178 4281948986
-0.018048456 -0.062081691 0.178 4283196488
-0.017626636 -0.062081691 0.178 4283788625
-0.017108161 -0.061732918 0.177 4282406718
-0.01668871 -0.061732918 0.177 4281682995
-0.016269261 -0.061732918 0.177 4282012214
-0.015760265 -0.061384149 0.17600001 4281683249
-0.015343185 -0.061384149 0.17600001 4282534443
-0.014926106 -0.061384149 0.17600001 4285560921
-0.014509025 -0.061384149 0.17600001 4288515950
-0.014091945 -0.061384149 0.17600001 4288121192
-0.013674865 -0.061384149 0.17600001 4288184925
-0.013182456 -0.061035372 0.17500001 4287987546
-0.012767746 -0.061035372 0.17500001 4288117847
-0.012353036 -0.061035372 0.17500001 4288117847
-0.011938325 -0.061035372 0.17500001 4288117329
-0.011457765 -0.060686599 0.17400001 4288051536
-0.011045424 -0.060686599 0.17400001 4287985743
-0.010633084 -0.060686599 0.17400001 4288051536
-0.010220744 -0.060686599 0.17400001 4288182606
-0.0098084025 -0.060686599 0.17400001 4288182606
-0.0093420623 -0.060337827 0.17300001 4287985743
-0.0089320913 -0.060337827 0.17300001 4288314708
-0.0085221203 -0.060337827 0.17300001 4285748279
-0.0081121502 -0.060337827 0.17300001 4284103454
-0.0077021783 -0.060337827 0.17300001 4284234778
-0.0072922078 -0.060337827 0.17300001 4284168985
-0.0068822373 -0.060337827 0.17300001 4286077748
-0.0064722663 -0.060337827 0.17300001 4286011955
-0.0060622958 -0.060337827 0.17300001 4284234776
-0.0056523252 -0.060337827 0.17300001 4283708432
-0.0052423542 -0.060337827 0.17300001 4283379469
-0.0048323832 -0.060337827 0.17300001 4288116565
-0.0044224123 -0.060337827 0.17300001 4287130184
-0.0040124417 -0.060337827 0.17300001 4287590735
-0.0036024707 -0.060337827 0.17300001 4285748017
-0.0031925 -0.060337827 0.17300001 4283313676
-0.0027825292 -0.060337827 0.17300001 4283378956
-0.0023725582 -0.060337827 0.17300001 4283576335
-0.0019625877 -0.060337827 0.17300001 4285222189
-0.0015526167 -0.060337827 0.17300001 4285222189
-0.001142646 -0.060337827 0.17300001 4284169247
-0.00073267514 -0.060337827 0.17300001 4283116559
-0.00032270438 -0.060337827 0.17300001 4284828208
8.7266431e-05 -0.060337827 0.17300001 4288117858
0.00049723726 -0.060337827 0.17300001 4288578661
0.00090720801 -0.060337827 0.17300001 4285749562
0.0013171788 -0.060337827 0.17300001 4282393090
0.0017271497 -0.060337827 0.17300001 4284761638
0.0021371203 -0.060337827 0.17300001 4286933577
0.0025470911 -0.060337827 0.17300001 4283446548
0.0029570619 -0.060337827 0.17300001 4282459912
0.0033670329 -0.060337827 0.17300001 4286341699
0.0037770036 -0.060337827 0.17300001 4288051034
0.0041869744 -0.060337827 0.17300001 4287985241
0.0045969454 -0.060337827 0.17300001 4287854677
0.0050069159 -0.060337827 0.17300001 4288249435
0.0054168869 -0.060337827 0.17300001 4288184153
0.0058268574 -0.060337827 0.17300001 4287920981
0.0062368289 -0.060337827 0.17300001 4287657811
0.0066083786 -0.05998905 0.17200001 4287789397
0.0070159794 -0.05998905 0.17200001 4288249183
0.0074235802 -0.05998905 0.17200001 4286801737
0.0078311814 -0.05998905 0.17200001 4286474568
0.0082387822 -0.05998905 0.17200001 4287264084
0.0086463839 -0.05998905 0.17200001 4286674264
0.0091066239 -0.060337827 0.17300001 4284437302
0.0095165949 -0.060337827 0.17300001 4282465572
0.0099265659 -0.060337827 0.17300001 4281873435
0.010336536 -0.060337827 0.17300001 4281415712
0.010746508 -0.060337827 0.17300001 4281481505
0.011156478 -0.060337827 0.17300001 4281024036
0.011633307 -0.060686599 0.17400001 4281287208
0.012045648 -0.060686599 0.17400001 4281421106
0.012457988 -0.060686599 0.17400001 4281157934
0.012870329 -0.060686599 0.17400001 4280763176
0.013359006 -0.061035372 0.17500001 4281223727
0.013773717 -0.061035372 0.17500001 4282013495
0.014188427 -0.061035372 0.17500001 4282342460
0.014686584 -0.061384149 0.17600001 4282473785
0.015103665 -0.061384149 0.17600001 4282473785
0.015520744 -0.061384149 0.17600001 4282604599
0.01602838 -0.061732918 0.177 4282538806
0.016447829 -0.061732918 0.177 4282208558
0.01686728 -0.061732918 0.177 4282011179
0.017286729 -0.061732918 0.177 4284773721
0.017706178 -0.061732918 0.177 4285300065
0.018228034 -0.062081691 0.178 4284115793
0.018649854 -0.062081691 0.178 4281484073
0.019071674 -0.062081691 0.178 4281483306
0.019493494 -0.062081691 0.178 4282470201
0.019915313 -0.062081691 0.178 4283191355
0.020451386 -0.062430464 0.17900001 4285888868
0.020875575 -0.062430464 0.17900001 4286674275
0.021299765 -0.062430464 0.17900001 4286871654
0.021723954 -0.062430464 0.17900001 4286804578
0.022148144 -0.062430464 0.17900001 4286409820
0.022698436 -0.06277924 0.18000001 4285949267
0.023124997 -0.06277924 0.18000001 4286607197
0.023551553 -0.06277924 0.18000001 4286409818
0.024111325 -0.063128017 0.18100001 4286475611
0.024540255 -0.063128017 0.18100001 4285422925
0.025107136 -0.063476786 0.18200001 4286738785
0.025538435 -0.063476786 0.18200001 4287594096
0.026112422 -0.063825563 0.18300001 4287528303
0.026546091 -0.063825563 0.18300001 4287594096
0.027127191 -0.064174339 0.18400002 4285422927
0.027563231 -0.064174339 0.18400002 4283975479
0.027999269 -0.064174339 0.18400002 4284436030
0.028589843 -0.064523108 0.185 4285028167
0.029028252 -0.064523108 0.185 4287857266
-0.027377598 -0.063738294 0.18400002 4287396713
-0.02694156 -0.063738294 0.18400002 4287396713
-0.026505524 -0.063738294 0.18400002 4287068518
-0.025927803 -0.063391894 0.18300001 4286739553
-0.025494134 -0.063391894 0.18300001 4286807397
-0.025060464 -0.063391894 0.18300001 4286017881
-0.024626797 -0.063391894 0.18300001 4281880111
-0.024060925 -0.063045487 0.18200001 4281682732
-0.023629626 -0.063045487 0.18200001 4281752118
-0.023198327 -0.063045487 0.18200001 4281620532
-0.022767028 -0.063045487 0.18200001 4281423923
-0.022213005 -0.06269908 0.18100001 4281423923
-0.021784076 -0.06269908 0.18100001 4281423923
-0.021355148 -0.06269908 0.18100001 4281423923
-0.020810604 -0.062352676 0.18000001 4281489716
-0.020384045 -0.062352676 0.18000001 4281555509
