# .PCD v0.7 - Point Cloud Data file format
VERSION 0.7
FIELDS x y z rgb
SIZE 4 4 4 4
TYPE F F F U
COUNT 1 1 1 1
WIDTH 1031
HEIGHT 1
VIEWPOINT 0 0 0 1 0 0 0
POINTS 1031
DATA ascii
-0.028646939 -0.012943319 0.18100001 4286862133
-0.028062111 -0.012871809 0.18000001 4286992690
-0.027635552 -0.012871809 0.18000001 4286861104
-0.02705783 -0.012800299 0.17900001 4286992174
-0.026633641 -0.012800299 0.17900001 4286926381
-0.026063029 -0.012728789 0.178 4286991913
-0.025497159 -0.012657278 0.177 4286794534
-0.025077708 -0.012657278 0.177 4286530592
-0.024518948 -0.012585769 0.17600001 4286596385
-0.024101866 -0.012585769 0.17600001 4286399524
-0.023684788 -0.012585769 0.17600001 4287978556
-0.023135506 -0.012514259 0.17500001 4286139707
-0.022720795 -0.012514259 0.17500001 4288968806
-0.022306083 -0.012514259 0.17500001 4286076230
-0.021891372 -0.012514259 0.17500001 4287589469
-0.02135394 -0.012442749 0.17400001 4286207051
-0.020941598 -0.012442749 0.17400001 4286930774
-0.020529259 -0.012442749 0.17400001 4285024324
-0.020116918 -0.012442749 0.17400001 4287195493
-0.019591331 -0.012371238 0.17300001 4286798938
-0.019181361 -0.012371238 0.17300001 4285351492
-0.018771391 -0.012371238 0.17300001 4288377702
-0.018361419 -0.012371238 0.17300001 4288311909
-0.017951448 -0.012371238 0.17300001 4288573786
-0.017440083 -0.012299729 0.17200001 4286599996
-0.01703248 -0.012299729 0.17200001 4286465330
-0.016624881 -0.012299729 0.17200001 4286202158
-0.016217278 -0.012299729 0.17200001 4286464815
-0.01571776 -0.012228218 0.171 4289491293
-0.01531253 -0.012228218 0.171 4286071602
-0.014907298 -0.012228218 0.171 4286005809
-0.014502067 -0.012228218 0.171 4286072117
-0.014014398 -0.012156708 0.17 4289230181
-0.013611537 -0.012156708 0.17 4285483062
-0.013208675 -0.012156708 0.17 4287062094
-0.012805813 -0.012156708 0.17 4288048474
-0.012402953 -0.012156708 0.17 4287061579
-0.01200009 -0.012156708 0.17 4288704609
-0.01159723 -0.012156708 0.17 4286072889
-0.011194368 -0.012156708 0.17 4286400830
-0.010791506 -0.012156708 0.17 4287058760
-0.010388645 -0.012156708 0.17 4289164136
-0.0099270437 -0.012085199 0.16900001 4286335037
-0.0095265526 -0.012085199 0.16900001 4286995795
-0.0091260606 -0.012085199 0.16900001 4287456346
-0.0087255696 -0.012085199 0.16900001 4286009924
-0.0083250776 -0.012085199 0.16900001 4287983714
-0.0079245856 -0.012085199 0.16900001 4286208076
-0.0075240936 -0.012085199 0.16900001 4287918694
-0.0071236021 -0.012085199 0.16900001 4288512116
-0.0067231106 -0.012085199 0.16900001 4286209361
-0.006322619 -0.012085199 0.16900001 4287194459
-0.0059221275 -0.012085199 0.16900001 4287457631
-0.0055216355 -0.012085199 0.16900001 4285154876
-0.005121144 -0.012085199 0.16900001 4287326045
-0.004720652 -0.012085199 0.16900001 4288570966
-0.00432016 -0.012085199 0.16900001 4285873453
-0.0039196685 -0.012085199 0.16900001 4286333996
-0.0035191767 -0.012085199 0.16900001 4289426267
-0.003118685 -0.012085199 0.16900001 4286334258
-0.0027181935 -0.012085199 0.16900001 4286531110
-0.0023177015 -0.012085199 0.16900001 4286728489
-0.0019172099 -0.012085199 0.16900001 4286727971
-0.0015167182 -0.012085199 0.16900001 4286464799
-0.0011162264 -0.012085199 0.16900001 4287059253
-0.00071573473 -0.012085199 0.16900001 4285743393
-0.000315243 -0.012085199 0.16900001 4288771425
8.5248714e-05 -0.012085199 0.16900001 4286600256
0.00048574043 -0.012085199 0.16900001 4286862907
0.00088623213 -0.012085199 0.16900001 4287455044
0.0012867239 -0.012085199 0.16900001 4285218332
0.0016872156 -0.012085199 0.16900001 4287389501
0.0020877072 -0.012085199 0.16900001 4288112972
0.0024881992 -0.012085199 0.16900001 4286073389
0.0028886907 -0.012085199 0.16900001 4288573271
0.0032891827 -0.012085199 0.16900001 4285612586
0.0036896742 -0.012085199 0.16900001 4285744947
0.0040901657 -0.012085199 0.16900001 4288574046
0.0044906577 -0.012085199 0.16900001 4285548855
0.0048911492 -0.012085199 0.16900001 4287917403
0.0052916408 -0.012085199 0.16900001 4286864461
0.0056921327 -0.012085199 0.16900001 4286864461
0.0060926247 -0.012085199 0.16900001 4288115300
0.0064931163 -0.012085199 0.16900001 4285351994
0.0068936083 -0.012085199 0.16900001 4288246886
0.0073372596 -0.012156708 0.17 4287128405
0.0077401209 -0.012156708 0.17 4288574050
0.0081429817 -0.012156708 0.17 4286205502
0.0085458439 -0.012156708 0.17 4286531371
0.0089487052 -0.012156708 0.17 4286465578
0.0093515664 -0.012156708 0.17 4286662178
0.0097544286 -0.012156708 0.17 4286662178
0.010217038 -0.012228218 0.171 4286924835
0.01062227 -0.012228218 0.171 4286990628
0.011027501 -0.012228218 0.171 4286990882
0.011432732 -0.012228218 0.171 4286925089
0.011837964 -0.012228218 0.171 4286727710
0.012243195 -0.012228218 0.171 4286661917
0.012722394 -0.012299729 0.17200001 4286793251
0.013129994 -0.012299729 0.17200001 4286990630
0.013537596 -0.012299729 0.17200001 4287056423
0.013945196 -0.012299729 0.17200001 4286990630
0.014352798 -0.012299729 0.17200001 4287056423
0.014760399 -0.012299729 0.17200001 4286924837
0.015167999 -0.012299729 0.17200001 4286925350
0.015575601 -0.012299729 0.17200001 4287056936
0.016076127 -0.012371238 0.17300001 4286664241
0.016486099 -0.012371238 0.17300001 4287782722
0.016896069 -0.012371238 0.17300001 4287590231
0.017306039 -0.012371238 0.17300001 4287524438
0.017818416 -0.012442749 0.17400001 4287197791
0.018230757 -0.012442749 0.17400001 4287197791
0.018643096 -0.012442749 0.17400001 4287066721
0.019164952 -0.012514259 0.17500001 4286935135
0.019579662 -0.012514259 0.17500001 4287000928
0.019994373 -0.012514259 0.17500001 4286803549
0.020525705 -0.012585769 0.17600001 4286606172
0.020942787 -0.012585769 0.17600001 4286408793
0.021359866 -0.012585769 0.17600001 4286474586
0.021900678 -0.012657278 0.177 4286474586
0.022320129 -0.012657278 0.177 4286868059
0.022739578 -0.012657278 0.177 4284960062
0.023289869 -0.012728789 0.178 4284761652
0.023711689 -0.012728789 0.178 4285353789
0.024133509 -0.012728789 0.178 4285617476
0.024555329 -0.012728789 0.178 4285749062
0.02511747 -0.012800299 0.17900001 4285486406
0.025684349 -0.012871809 0.18000001 4283973167
0.026110908 -0.012871809 0.18000001 4285881168
0.026684899 -0.012943319 0.18100001 4285881168
0.027113829 -0.012943319 0.18100001 4285880398
0.027694929 -0.01301483 0.18200001 4285288261
0.028280765 -0.013086339 0.18300001 4283840815
0.028714435 -0.013086339 0.18300001 4285748812
0.029307382 -0.01315785 0.18400002 4285355083
0.02990507 -0.013229359 0.185 4283973430
0.030507497 -0.013300869 0.186 4284105788
0.030948272 -0.013300869 0.186 4284368960
0.03155781 -0.013372379 0.18700001 4284830025
0.032172088 -0.013443889 0.18800001 4285027404
-0.028646939 -0.012514391 0.18100001 4286664243
-0.028062111 -0.012445251 0.18000001 4286992436
-0.027635552 -0.012445251 0.18000001 4286860850
-0.02705783 -0.01237611 0.17900001 4286926381
-0.026484849 -0.01230697 0.178 4286992174
-0.026063029 -0.01230697 0.178 4286990889
-0.025497159 -0.012237829 0.177 4286661924
-0.024936028 -0.01216869 0.17600001 4286530592
-0.024518948 -0.01216869 0.17600001 4286530592
-0.024101866 -0.01216869 0.17600001 4286465578
-0.023550216 -0.012099549 0.17500001 4288570954
-0.023135506 -0.012099549 0.17500001 4286469703
-0.022720795 -0.012099549 0.17500001 4288772458
-0.022306083 -0.012099549 0.17500001 4286602574
-0.021891372 -0.012099549 0.17500001 4286799953
-0.02135394 -0.012030409 0.17400001 4286207566
-0.020941598 -0.012030409 0.17400001 4286799703
-0.020529259 -0.012030409 0.17400001 4285090117
-0.020116918 -0.012030409 0.17400001 4287261286
-0.019591331 -0.011961268 0.17300001 4286207314
-0.019181361 -0.011961268 0.17300001 4285286212
-0.018771391 -0.011961268 0.17300001 4288245862
-0.018361419 -0.011961268 0.17300001 4286798416
-0.017847683 -0.011892128 0.17200001 4288770911
-0.017440083 -0.011892128 0.17200001 4286402363
-0.01703248 -0.011892128 0.17200001 4286399535
-0.016624881 -0.011892128 0.17200001 4286070570
-0.016217278 -0.011892128 0.17200001 4286464815
-0.01571776 -0.011822987 0.171 4289359707
-0.01531253 -0.011822987 0.171 4286204471
-0.014907298 -0.011822987 0.171 4287651917
-0.014502067 -0.011822987 0.171 4286336574
-0.014014398 -0.011753847 0.17 4288902501
-0.013611537 -0.011753847 0.17 4285351222
-0.013208675 -0.011753847 0.17 4286930254
-0.012805813 -0.011753847 0.17 4287785817
-0.012402953 -0.011753847 0.17 4286601543
-0.01200009 -0.011753847 0.17 4288442210
-0.01159723 -0.011753847 0.17 4286534213
-0.011194368 -0.011753847 0.17 4287520594
-0.010791506 -0.011753847 0.17 4286731078
-0.010388645 -0.011753847 0.17 4288770661
-0.0099270437 -0.011684708 0.16900001 4285941562
-0.0095265526 -0.011684708 0.16900001 4287194198
-0.0091260606 -0.011684708 0.16900001 4287259991
-0.0087255696 -0.011684708 0.16900001 4286272324
-0.0083250776 -0.011684708 0.16900001 4288706665
-0.0079245856 -0.011684708 0.16900001 4286141510
-0.0075240936 -0.011684708 0.16900001 4289036402
-0.0071236021 -0.011684708 0.16900001 4289168247
-0.0067231106 -0.011684708 0.16900001 4286668113
-0.006322619 -0.011684708 0.16900001 4286404428
-0.0059221275 -0.011684708 0.16900001 4288049253
-0.0055216355 -0.011684708 0.16900001 4286140486
-0.005121144 -0.011684708 0.16900001 4287851104
-0.004720652 -0.011684708 0.16900001 4287913808
-0.00432016 -0.011684708 0.16900001 4286071604
-0.0039196685 -0.011684708 0.16900001 4286399535
-0.0035191767 -0.011684708 0.16900001 4289557599
-0.003118685 -0.011684708 0.16900001 4286662707
-0.0027181935 -0.011684708 0.16900001 4286859305
-0.0023177015 -0.011684708 0.16900001 4286859305
-0.0019172099 -0.011684708 0.16900001 4286070041
-0.0015167182 -0.011684708 0.16900001 4287385901
-0.0011162264 -0.011684708 0.16900001 4288177995
-0.00071573473 -0.011684708 0.16900001 4286862135
-0.000315243 -0.011684708 0.16900001 4288507993
8.5248714e-05 -0.011684708 0.16900001 4286599996
0.00048574043 -0.011684708 0.16900001 4285810732
0.00088623213 -0.011684708 0.16900001 4288705624
0.0012867239 -0.011684708 0.16900001 4285810728
0.0016872156 -0.011684708 0.16900001 4288047690
0.0020877072 -0.011684708 0.16900001 4287455042
0.0024881992 -0.011684708 0.16900001 4285415459
0.0028886907 -0.011684708 0.16900001 4288902749
0.0032891827 -0.011684708 0.16900001 4286797373
0.0036896742 -0.011684708 0.16900001 4286798405
0.0040901657 -0.011684708 0.16900001 4287785300
0.0044906577 -0.011684708 0.16900001 4285745721
0.0048911492 -0.011684708 0.16900001 4288640613
0.0052916408 -0.011684708 0.16900001 4285416754
0.0056921327 -0.011684708 0.16900001 4285482547
0.0060926247 -0.011684708 0.16900001 4288442980
0.0064931163 -0.011684708 0.16900001 4286337604
0.0068936083 -0.011684708 0.16900001 4288049507
0.0073372596 -0.011753847 0.17 4286602061
0.0077401209 -0.011753847 0.17 4288639841
0.0081429817 -0.011753847 0.17 4286666051
0.0085458439 -0.011753847 0.17 4286531373
0.0089487052 -0.011753847 0.17 4286531373
0.0093515664 -0.011753847 0.17 4286727717
0.0098118074 -0.011822987 0.171 4286925096
0.010217038 -0.011822987 0.171 4287056423
0.01062227 -0.011822987 0.171 4286924837
0.011027501 -0.011822987 0.171 4286596124
0.011432732 -0.011822987 0.171 4286727710
0.011837964 -0.011822987 0.171 4286793503
0.012243195 -0.011822987 0.171 4286990882
0.012722394 -0.011892128 0.17200001 4286990628
0.013129994 -0.011892128 0.17200001 4287122214
0.013537596 -0.011892128 0.17200001 4286990630
0.013945196 -0.011892128 0.17200001 4286727458
0.014352798 -0.011892128 0.17200001 4286924837
0.014760399 -0.011892128 0.17200001 4286793251
0.015167999 -0.011892128 0.17200001 4286991143
0.015575601 -0.011892128 0.17200001 4287188522
0.015983202 -0.011892128 0.17200001 4286861620
0.016486099 -0.011961268 0.17300001 4287848515
0.016896069 -0.011961268 0.17300001 4287458645
0.017306039 -0.011961268 0.17300001 4287524438
0.017818416 -0.012030409 0.17400001 4287197789
0.018230757 -0.012030409 0.17400001 4287197789
0.018643096 -0.012030409 0.17400001 4286935135
0.019164952 -0.012099549 0.17500001 4286803549
0.019579662 -0.012099549 0.17500001 4286606170
0.019994373 -0.012099549 0.17500001 4286671963
0.020525705 -0.01216869 0.17600001 4286474584
0.020942787 -0.01216869 0.17600001 4286474584
0.021359866 -0.01216869 0.17600001 4286540377
0.021900678 -0.012237829 0.177 4286474584
0.022320129 -0.012237829 0.177 4286539094
0.022739578 -0.012237829 0.177 4284696890
0.023289869 -0.01230697 0.178 4283445794
0.023711689 -0.01230697 0.178 4285945928
0.024133509 -0.01230697 0.178 4285551683
0.02469328 -0.01237611 0.17900001 4285551683
0.02511747 -0.01237611 0.17900001 4285289027
0.025684349 -0.012445251 0.18000001 4284038960
0.026110908 -0.012445251 0.18000001 4285552716
0.026684899 -0.012514391 0.18100001 4285881681
0.027113829 -0.012514391 0.18100001 4284762687
0.027694929 -0.012583531 0.18200001 4284038964
0.028126225 -0.012583531 0.18200001 4284367159
0.028714435 -0.012652672 0.18300001 4286077777
0.029307382 -0.012721812 0.18400002 4283776051
0.02990507 -0.012790952 0.185 4284105016
0.030507497 -0.012860092 0.186 4284039993
0.030948272 -0.012860092 0.186 4284303165
0.03155781 -0.012929233 0.18700001 4284895818
0.032172088 -0.012998373 0.18800001 4285027404
0.0327911 -0.013067513 0.18900001 4284569167
-0.028062111 -0.012018691 0.18000001 4286992436
-0.027635552 -0.012018691 0.18000001 4286860850
-0.02705783 -0.01195192 0.17900001 4287057454
-0.026484849 -0.011885149 0.178 4287189040
-0.026063029 -0.011885149 0.178 4286859303
-0.025497159 -0.011818379 0.177 4286596131
-0.024936028 -0.011751609 0.17600001 4286727717
-0.024518948 -0.011751609 0.17600001 4286990889
-0.023964925 -0.011684839 0.17500001 4286400301
-0.023550216 -0.011684839 0.17500001 4288505677
-0.023135506 -0.011684839 0.17500001 4286865485
-0.022720795 -0.011684839 0.17500001 4288510310
-0.022306083 -0.011684839 0.17500001 4286603086
-0.021766279 -0.011618068 0.17400001 4286405707
-0.02135394 -0.011618068 0.17400001 4286601809
-0.020941598 -0.011618068 0.17400001 4286864981
-0.020529259 -0.011618068 0.17400001 4285220931
-0.020001302 -0.011551297 0.17300001 4287392100
-0.019591331 -0.011551297 0.17300001 4286141521
-0.019181361 -0.011551297 0.17300001 4285220419
-0.018771391 -0.011551297 0.17300001 4288573544
-0.018361419 -0.011551297 0.17300001 4286204996
-0.017847683 -0.011484527 0.17200001 4288178515
-0.017440083 -0.011484527 0.17200001 4286731069
-0.01703248 -0.011484527 0.17200001 4286465328
-0.016624881 -0.011484527 0.17200001 4286333742
-0.016122991 -0.011417756 0.171 4286333996
-0.01571776 -0.011417756 0.171 4289426267
-0.01531253 -0.011417756 0.171 4286205752
-0.014907298 -0.011417756 0.171 4288442714
-0.014502067 -0.011417756 0.171 4286205500
-0.014014398 -0.011350986 0.17 4288376669
-0.013611537 -0.011350986 0.17 4286074686
-0.013208675 -0.011350986 0.17 4287127374
-0.012805813 -0.011350986 0.17 4287785817
-0.012402953 -0.011350986 0.17 4286469957
-0.01200009 -0.011350986 0.17 4288704607
-0.01159723 -0.011350986 0.17 4288046677
-0.011194368 -0.011350986 0.17 4288507228
-0.010791506 -0.011350986 0.17 4285941301
-0.010388645 -0.011350986 0.17 4288968031
-0.0099270437 -0.011284215 0.16900001 4287915343
-0.0095265526 -0.011284215 0.16900001 4288706404
-0.0091260606 -0.011284215 0.16900001 4287061579
-0.0087255696 -0.011284215 0.16900001 4286073912
-0.0083250776 -0.011284215 0.16900001 4288837218
-0.0079245856 -0.011284215 0.16900001 4286073914
-0.0075240936 -0.011284215 0.16900001 4288574048
-0.0071236021 -0.011284215 0.16900001 4289494125
-0.0067231106 -0.011284215 0.16900001 4286928198
-0.006322619 -0.011284215 0.16900001 4285876285
-0.0059221275 -0.011284215 0.16900001 4288902763
-0.0055216355 -0.011284215 0.16900001 4288902247
-0.005121144 -0.011284215 0.16900001 4289231212
-0.004720652 -0.011284215 0.16900001 4286991674
-0.00432016 -0.011284215 0.16900001 4286860088
-0.0039196685 -0.011284215 0.16900001 4286530862
-0.0035191767 -0.011284215 0.16900001 4289557340
-0.003118685 -0.011284215 0.16900001 4286530088
-0.0027181935 -0.011284215 0.16900001 4286530077
-0.0023177015 -0.011284215 0.16900001 4286464284
-0.0019172099 -0.011284215 0.16900001 4286464284
-0.0015167182 -0.011284215 0.16900001 4286595870
-0.0011162264 -0.011284215 0.16900001 4288768587
-0.00071573473 -0.011284215 0.16900001 4288834380
-0.000315243 -0.011284215 0.16900001 4288309070
8.5248714e-05 -0.011284215 0.16900001 4285940522
0.00048574043 -0.011284215 0.16900001 4285743654
0.00088623213 -0.011284215 0.16900001 4287849030
0.0012867239 -0.011284215 0.16900001 4289164888
0.0016872156 -0.011284215 0.16900001 4288770130
0.0020877072 -0.011284215 0.16900001 4286598448
0.0024881992 -0.011284215 0.16900001 4285545760
0.0028886907 -0.011284215 0.16900001 4287124796
0.0032891827 -0.011284215 0.16900001 4289230172
0.0036896742 -0.011284215 0.16900001 4288770652
0.0040901657 -0.011284215 0.16900001 4287191620
0.0044906577 -0.011284215 0.16900001 4285743920
0.0048911492 -0.011284215 0.16900001 4288638812
0.0052916408 -0.011284215 0.16900001 4285611818
0.0056921327 -0.011284215 0.16900001 4285611818
0.0060926247 -0.011284215 0.16900001 4288835421
0.0064931163 -0.011284215 0.16900001 4287059010
0.0069343979 -0.011350986 0.17 4288113245
0.0073372596 -0.011350986 0.17 4286928971
0.0077401209 -0.011350986 0.17 4288967261
0.0081429817 -0.011350986 0.17 4287059264
0.0085458439 -0.011350986 0.17 4286531112
0.0089487052 -0.011350986 0.17 4286728491
0.0093515664 -0.011350986 0.17 4286990376
0.0098118074 -0.011417756 0.171 4286792997
0.010217038 -0.011417756 0.171 4286792481
0.01062227 -0.011417756 0.171 4286595102
0.011027501 -0.011417756 0.171 4286660893
0.011432732 -0.011417756 0.171 4286858272
0.011837964 -0.011417756 0.171 4286925089
0.012243195 -0.011417756 0.171 4287056675
0.012722394 -0.011484527 0.17200001 4286793503
0.013129994 -0.011484527 0.17200001 4286727710
0.013537596 -0.011484527 0.17200001 4286727456
0.013945196 -0.011484527 0.17200001 4286793249
0.014352798 -0.011484527 0.17200001 4286859557
0.014760399 -0.011484527 0.17200001 4286859557
0.015167999 -0.011484527 0.17200001 4287188522
0.015575601 -0.011484527 0.17200001 4287320108
0.015983202 -0.011484527 0.17200001 4286796340
0.016486099 -0.011551297 0.17300001 4287585856
0.016896069 -0.011551297 0.17300001 4287327059
0.017306039 -0.011551297 0.17300001 4287392852
0.017716011 -0.011551297 0.17300001 4287131998
0.018230757 -0.011618068 0.17400001 4287197791
0.018643096 -0.011618068 0.17400001 4286935135
0.019164952 -0.011684839 0.17500001 4286606170
0.019579662 -0.011684839 0.17500001 4286474584
0.019994373 -0.011684839 0.17500001 4286671963
0.020525705 -0.011751609 0.17600001 4286671963
0.020942787 -0.011751609 0.17600001 4286869342
0.021359866 -0.011751609 0.17600001 4286606170
0.021900678 -0.011818379 0.177 4286606170
0.022320129 -0.011818379 0.177 4286736473
0.022739578 -0.011818379 0.177 4284696890
0.023159027 -0.011818379 0.177 4283445794
0.023711689 -0.011885149 0.178 4286011721
0.024133509 -0.011885149 0.178 4285485636
0.02469328 -0.01195192 0.17900001 4285156671
0.02511747 -0.01195192 0.17900001 4285223234
0.025684349 -0.012018691 0.18000001 4285289027
0.026110908 -0.012018691 0.18000001 4285157956
0.026684899 -0.012085461 0.18100001 4285618507
0.027113829 -0.012085461 0.18100001 4284565308
0.027694929 -0.012152232 0.18200001 4283381034
0.028280765 -0.012219002 0.18300001 4285749580
0.028714435 -0.012219002 0.18300001 4285289029
0.029307382 -0.012285774 0.18400002 4283316524
0.02990507 -0.012352543 0.185 4283842868
0.030343477 -0.012352543 0.185 4283974200
0.030948272 -0.012419313 0.186 4284237372
0.03155781 -0.012486084 0.18700001 4284895818
0.032172088 -0.012552855 0.18800001 4285027404
0.0327911 -0.012619626 0.18900001 4284634958
-0.028062111 -0.011592132 0.18000001 4287189301
-0.02705783 -0.011527731 0.17900001 4287385647
-0.026484849 -0.01146333 0.178 4287122475
-0.026063029 -0.01146333 0.178 4286727717
-0.025497159 -0.01139893 0.177 4286925096
-0.024936028 -0.01133453 0.17600001 4286925096
-0.024518948 -0.01133453 0.17600001 4286859303
-0.023964925 -0.011270129 0.17500001 4285808936
-0.023550216 -0.011270129 0.17500001 4288243277
-0.023135506 -0.011270129 0.17500001 4287326547
-0.022720795 -0.011270129 0.17500001 4287721305
-0.022306083 -0.011270129 0.17500001 4286735694
-0.021766279 -0.011205728 0.17400001 4286143557
-0.02135394 -0.011205728 0.17400001 4286602061
-0.020941598 -0.011205728 0.17400001 4286733647
-0.020529259 -0.011205728 0.17400001 4285352003
-0.020001302 -0.011141327 0.17300001 4287523172
-0.019591331 -0.011141327 0.17300001 4286075728
-0.019181361 -0.011141327 0.17300001 4285286212
-0.018771391 -0.011141327 0.17300001 4288638825
-0.018361419 -0.011141327 0.17300001 4286730828
-0.017847683 -0.011076926 0.17200001 4288045646
-0.017440083 -0.011076926 0.17200001 4286927165
-0.01703248 -0.011076926 0.17200001 4286465582
-0.016624881 -0.011076926 0.17200001 4286728754
-0.016122991 -0.011012525 0.171 4286531375
-0.01571776 -0.011012525 0.171 4289426267
-0.01531253 -0.011012525 0.171 4287059262
-0.014907298 -0.011012525 0.171 4288967259
-0.014502067 -0.011012525 0.171 4285941814
-0.014096836 -0.011012525 0.171 4287784018
-0.013611537 -0.010948124 0.17 4288770913
-0.013208675 -0.010948124 0.17 4288902499
-0.012805813 -0.010948124 0.17 4286993989
-0.012402953 -0.010948124 0.17 4286204473
-0.01200009 -0.010948124 0.17 4288965978
-0.01159723 -0.010948124 0.17 4288965978
-0.011194368 -0.010948124 0.17 4287848517
-0.010791506 -0.010948124 0.17 4286137899
-0.010327537 -0.010883724 0.16900001 4287782724
-0.0099270437 -0.010883724 0.16900001 4289032791
-0.0095265526 -0.010883724 0.16900001 4288506962
-0.0091260606 -0.010883724 0.16900001 4286533172
-0.0087255696 -0.010883724 0.16900001 4285810219
-0.0083250776 -0.010883724 0.16900001 4285941805
-0.0079245856 -0.010883724 0.16900001 4286137647
-0.0075240936 -0.010883724 0.16900001 4286203440
-0.0071236021 -0.010883724 0.16900001 4286532659
-0.0067231106 -0.010883724 0.16900001 4286598452
-0.006322619 -0.010883724 0.16900001 4286598200
-0.0059221275 -0.010883724 0.16900001 4286400821
-0.0055216355 -0.010883724 0.16900001 4286992186
-0.005121144 -0.010883724 0.16900001 4286597428
-0.004720652 -0.010883724 0.16900001 4286530088
-0.00432016 -0.010883724 0.16900001 4287188018
-0.0039196685 -0.010883724 0.16900001 4286859307
-0.0035191767 -0.010883724 0.16900001 4287188272
-0.003118685 -0.010883724 0.16900001 4286068758
-0.0027181935 -0.010883724 0.16900001 4286463768
-0.0023177015 -0.010883724 0.16900001 4286792733
-0.0019172099 -0.010883724 0.16900001 4286661147
-0.0015167182 -0.010883724 0.16900001 4286200596
-0.0011162264 -0.010883724 0.16900001 4285741076
-0.00071573473 -0.010883724 0.16900001 4286201627
-0.000315243 -0.010883724 0.16900001 4286136352
8.5248714e-05 -0.010883724 0.16900001 4286267938
0.00048574043 -0.010883724 0.16900001 4286596903
0.00088623213 -0.010883724 0.16900001 4285610008
0.0012867239 -0.010883724 0.16900001 4285742107
0.0016872156 -0.010883724 0.16900001 4286005279
0.0020877072 -0.010883724 0.16900001 4286005279
0.0024881992 -0.010883724 0.16900001 4286334244
0.0028886907 -0.010883724 0.16900001 4286070561
0.0032891827 -0.010883724 0.16900001 4286004768
0.0036896742 -0.010883724 0.16900001 4286069537
0.0040901657 -0.010883724 0.16900001 4286201123
0.0044906577 -0.010883724 0.16900001 4285741859
0.0048911492 -0.010883724 0.16900001 4286860340
0.0052916408 -0.010883724 0.16900001 4286333481
0.0056921327 -0.010883724 0.16900001 4286267688
0.0060926247 -0.010883724 0.16900001 4286794547
0.0064931163 -0.010883724 0.16900001 4286728754
0.0069343979 -0.010948124 0.17 4287715649
0.0073372596 -0.010948124 0.17 4286465582
0.0077401209 -0.010948124 0.17 4287584059
0.0081429817 -0.010948124 0.17 4287189301
0.0085458439 -0.010948124 0.17 4286727717
0.0089487052 -0.010948124 0.17 4286661924
0.0093515664 -0.010948124 0.17 4286661665
0.0098118074 -0.011012525 0.171 4286464286
0.010217038 -0.011012525 0.171 4286397723
0.01062227 -0.011012525 0.171 4286397723
0.011027501 -0.011012525 0.171 4286726688
0.011432732 -0.011012525 0.171 4287055653
0.011837964 -0.011012525 0.171 4286793251
0.012243195 -0.011012525 0.171 4286793251
0.012648427 -0.011012525 0.171 4286661663
0.013129994 -0.011076926 0.17200001 4286727456
0.013537596 -0.011076926 0.17200001 4286793249
0.013945196 -0.011076926 0.17200001 4286727456
0.014352798 -0.011076926 0.17200001 4286859555
0.014760399 -0.011076926 0.17200001 4286991141
0.015167999 -0.011076926 0.17200001 4287385899
0.015575601 -0.011076926 0.17200001 4286991141
0.015983202 -0.011076926 0.17200001 4286664754
0.016390802 -0.011076926 0.17200001 4287256891
0.016896069 -0.011141327 0.17300001 4287064659
0.017306039 -0.011141327 0.17300001 4287064659
0.017716011 -0.011141327 0.17300001 4287000412
0.018230757 -0.011205728 0.17400001 4287000412
0.018643096 -0.011205728 0.17400001 4287000158
0.019164952 -0.011270129 0.17500001 4286671193
0.019579662 -0.011270129 0.17500001 4286539607
0.019994373 -0.011270129 0.17500001 4286605400
0.020525705 -0.01133453 0.17600001 4286671963
0.020942787 -0.01133453 0.17600001 4286869342
0.021359866 -0.01133453 0.17600001 4286869342
0.021776946 -0.01133453 0.17600001 4286803549
0.022320129 -0.01139893 0.177 4287197278
0.022739578 -0.01139893 0.177 4285223488
0.023159027 -0.01139893 0.177 4282985243
0.023711689 -0.01146333 0.178 4285090619
0.024133509 -0.01146333 0.178 4285748808
0.024555329 -0.01146333 0.178 4284959292
0.02511747 -0.011527731 0.17900001 4284960575
0.025684349 -0.011592132 0.18000001 4286079056
0.026110908 -0.011592132 0.18000001 4285421130
0.026684899 -0.011656533 0.18100001 4283973684
0.027113829 -0.011656533 0.18100001 4283117860
0.027694929 -0.011720934 0.18200001 4284960064
0.028280765 -0.011785335 0.18300001 4286736475
0.028714435 -0.011785335 0.18300001 4284038962
0.029307382 -0.011849736 0.18400002 4283645489
0.02990507 -0.011914136 0.185 4283842868
0.030343477 -0.011914136 0.185 4283842614
0.030948272 -0.011978537 0.186 4284237372
0.03155781 -0.012042938 0.18700001 4284764745
0.032172088 -0.012107338 0.18800001 4284896331
0.0327911 -0.012171739 0.18900001 4284569165
-0.024936028 -0.010917449 0.17600001 4286925096
-0.024518948 -0.010917449 0.17600001 4286727717
-0.023964925 -0.010855418 0.17500001 4286006061
-0.023550216 -0.010855418 0.17500001 4288111437
-0.023135506 -0.010855418 0.17500001 4287984475
-0.022720795 -0.010855418 0.17500001 4287260752
-0.022306083 -0.010855418 0.17500001 4287853657
-0.021766279 -0.010793387 0.17400001 4286208832
-0.02135394 -0.010793387 0.17400001 4286930508
-0.020941598 -0.010793387 0.17400001 4286930508
-0.020529259 -0.010793387 0.17400001 4285286464
-0.020001302 -0.010731356 0.17300001 4287786598
-0.019591331 -0.010731356 0.17300001 4286140490
-0.019181361 -0.010731356 0.17300001 4285482560
-0.018771391 -0.010731356 0.17300001 4288835689
-0.018255284 -0.010669325 0.17200001 4286861899
-0.017847683 -0.010669325 0.17200001 4287979081
-0.017440083 -0.010669325 0.17200001 4287321151
-0.01703248 -0.010669325 0.17200001 4286925616
-0.016624881 -0.010669325 0.17200001 4286925616
-0.016122991 -0.010607294 0.171 4286925616
-0.01571776 -0.010607294 0.171 4287978304
-0.01531253 -0.010607294 0.171 4288834128
-0.014907298 -0.010607294 0.171 4287913026
-0.014502067 -0.010607294 0.171 4286071084
-0.014014398 -0.010545263 0.17 4286992186
-0.013611537 -0.010545263 0.17 4287650118
-0.013208675 -0.010545263 0.17 4287321153
-0.012805813 -0.010545263 0.17 4286531123
-0.012402953 -0.010545263 0.17 4286662709
-0.01200009 -0.010545263 0.17 4287057202
-0.01159723 -0.010545263 0.17 4286728237
-0.011194368 -0.010545263 0.17 4286596133
-0.010728028 -0.010483232 0.16900001 4287319856
-0.010327537 -0.010483232 0.16900001 4286925350
-0.0099270437 -0.010483232 0.16900001 4286596385
-0.0095265526 -0.010483232 0.16900001 4286531110
-0.0091260606 -0.010483232 0.16900001 4286860075
-0.0087255696 -0.010483232 0.16900001 4286729002
-0.0083250776 -0.010483232 0.16900001 4286729002
-0.0079245856 -0.010483232 0.16900001 4286794797
-0.0075240936 -0.010483232 0.16900001 4286860590
-0.0071236021 -0.010483232 0.16900001 4287189555
-0.0067231106 -0.010483232 0.16900001 4287255348
-0.006322619 -0.010483232 0.16900001 4287189555
-0.0059221275 -0.010483232 0.16900001 4287321141
-0.0055216355 -0.010483232 0.16900001 4287320628
-0.005121144 -0.010483232 0.16900001 4287189042
-0.004720652 -0.010483232 0.16900001 4287253548
-0.00432016 -0.010483232 0.16900001 4287516720
-0.0039196685 -0.010483232 0.16900001 4286660895
-0.0035191767 -0.010483232 0.16900001 4286595102
-0.003118685 -0.010483232 0.16900001 4286791709
-0.0027181935 -0.010483232 0.16900001 4286791963
-0.0023177015 -0.010483232 0.16900001 4286791963
-0.0019172099 -0.010483232 0.16900001 4286463766
-0.0015167182 -0.010483232 0.16900001 4286595352
-0.0011162264 -0.010483232 0.16900001 4286530331
-0.00071573473 -0.010483232 0.16900001 4286727710
-0.000315243 -0.010483232 0.16900001 4286596124
8.5248714e-05 -0.010483232 0.16900001 4286727710
0.00048574043 -0.010483232 0.16900001 4286596124
0.00088623213 -0.010483232 0.16900001 4286332952
0.0012867239 -0.010483232 0.16900001 4286332698
0.0016872156 -0.010483232 0.16900001 4286595870
0.0020877072 -0.010483232 0.16900001 4286530077
0.0024881992 -0.010483232 0.16900001 4286464284
0.0028886907 -0.010483232 0.16900001 4286464286
0.0032891827 -0.010483232 0.16900001 4286464286
0.0036896742 -0.010483232 0.16900001 4286201112
0.0040901657 -0.010483232 0.16900001 4286266905
0.0044906577 -0.010483232 0.16900001 4286464286
0.0048911492 -0.010483232 0.16900001 4286661665
0.0052916408 -0.010483232 0.16900001 4286596385
0.0056921327 -0.010483232 0.16900001 4286662178
0.0060926247 -0.010483232 0.16900001 4286661924
0.0064931163 -0.010483232 0.16900001 4286530338
0.0069343979 -0.010545263 0.17 4286596135
0.0073372596 -0.010545263 0.17 4286727721
0.0077401209 -0.010545263 0.17 4286727719
0.0081429817 -0.010545263 0.17 4286727719
0.0085458439 -0.010545263 0.17 4286530079
0.0089487052 -0.010545263 0.17 4286530079
0.0093515664 -0.010545263 0.17 4286660893
0.0098118074 -0.010607294 0.171 4286660893
0.010217038 -0.010607294 0.171 4286858272
0.01062227 -0.010607294 0.171 4286726686
0.011027501 -0.010607294 0.171 4286726686
0.011432732 -0.010607294 0.171 4286660893
0.011837964 -0.010607294 0.171 4286464286
0.012243195 -0.010607294 0.171 4286530079
0.012648427 -0.010607294 0.171 4286530592
0.013129994 -0.010669325 0.17200001 4286662178
0.013537596 -0.010669325 0.17200001 4286859555
0.013945196 -0.010669325 0.17200001 4286859555
0.014352798 -0.010669325 0.17200001 4286925348
0.014760399 -0.010669325 0.17200001 4287122727
0.015167999 -0.010669325 0.17200001 4287188520
0.015575601 -0.010669325 0.17200001 4286925348
0.015983202 -0.010669325 0.17200001 4286598448
0.016390802 -0.010669325 0.17200001 4286993206
0.016896069 -0.010731356 0.17300001 4287327831
0.017306039 -0.010731356 0.17300001 4287196245
0.017716011 -0.010731356 0.17300001 4286803803
0.018230757 -0.010793387 0.17400001 4286869596
0.018643096 -0.010793387 0.17400001 4286869342
0.019055437 -0.010793387 0.17400001 4286803549
0.019579662 -0.010855418 0.17500001 4286606170
0.019994373 -0.010855418 0.17500001 4286606170
0.020409083 -0.010855418 0.17500001 4286606170
0.020942787 -0.010917449 0.17600001 4286803549
0.021359866 -0.010917449 0.17600001 4286606170
0.021776946 -0.010917449 0.17600001 4286408791
0.022320129 -0.010979479 0.177 4286670680
0.022739578 -0.010979479 0.177 4285486406
0.023159027 -0.010979479 0.177 4282656024
0.023711689 -0.011041511 0.178 4283050782
0.024133509 -0.011041511 0.178 4285025085
0.024555329 -0.011041511 0.178 4285025085
0.02511747 -0.011103542 0.17900001 4284894782
0.025684349 -0.011165572 0.18000001 4285684298
0.026110908 -0.011165572 0.18000001 4285289029
0.026684899 -0.011227604 0.18100001 4283117860
0.027113829 -0.011227604 0.18100001 4284301364
0.027694929 -0.011289635 0.18200001 4286669912
0.028126225 -0.011289635 0.18200001 4285289031
0.028714435 -0.011351665 0.18300001 4283381034
0.029307382 -0.011413697 0.18400002 4283645235
0.02990507 -0.011475727 0.185 4283711028
0.030343477 -0.011475727 0.185 4283645751
0.030948272 -0.011537758 0.186 4284106302
0.03155781 -0.011599789 0.18700001 4284567112
0.032172088 -0.01166182 0.18800001 4284830284
0.0327911 -0.011723852 0.18900001 4284569165
-0.024936028 -0.01050037 0.17600001 4286596903
-0.024518948 -0.01050037 0.17600001 4286728489
-0.023964925 -0.010440708 0.17500001 4286269233
-0.023550216 -0.010440708 0.17500001 4287914058
-0.023135506 -0.010440708 0.17500001 4288378204
-0.022720795 -0.010440708 0.17500001 4287391309
-0.022306083 -0.010440708 0.17500001 4288706908
-0.021766279 -0.010381047 0.17400001 4286469946
-0.02135394 -0.010381047 0.17400001 4287850577
-0.020941598 -0.010381047 0.17400001 4287192647
-0.020529259 -0.010381047 0.17400001 4285877053
-0.020001302 -0.010321385 0.17300001 4287587671
-0.019591331 -0.010321385 0.17300001 4286467395
-0.019181361 -0.010321385 0.17300001 4286072637
-0.018771391 -0.010321385 0.17300001 4287913810
-0.018255284 -0.010261724 0.17200001 4286597950
-0.017847683 -0.010261724 0.17200001 4287057979
-0.017440083 -0.010261724 0.17200001 4287123772
-0.01703248 -0.010261724 0.17200001 4286991924
-0.016624881 -0.010261724 0.17200001 4287189303
-0.016122991 -0.010202062 0.171 4287254835
-0.01571776 -0.010202062 0.171 4286794284
-0.01531253 -0.010202062 0.171 4286859307
-0.014907298 -0.010202062 0.171 4286661928
-0.014502067 -0.010202062 0.171 4286595370
-0.014014398 -0.010142401 0.17 4286595370
-0.013611537 -0.010142401 0.17 4286595885
-0.013208675 -0.010142401 0.17 4287056436
-0.012805813 -0.010142401 0.17 4287188020
-0.012402953 -0.010142401 0.17 4287122227
-0.01200009 -0.010142401 0.17 4286990891
-0.01159723 -0.010142401 0.17 4286859305
-0.011194368 -0.010142401 0.17 4287188268
-0.010728028 -0.010082741 0.16900001 4286990889
-0.010327537 -0.010082741 0.16900001 4286990630
-0.0099270437 -0.010082741 0.16900001 4286990630
-0.0095265526 -0.010082741 0.16900001 4286990630
-0.0091260606 -0.010082741 0.16900001 4286990630
-0.0087255696 -0.010082741 0.16900001 4286859557
-0.0083250776 -0.010082741 0.16900001 4287056936
-0.0079245856 -0.010082741 0.16900001 4287385647
-0.0075240936 -0.010082741 0.16900001 4287188268
-0.0071236021 -0.010082741 0.16900001 4287385647
-0.0067231106 -0.010082741 0.16900001 4287385647
-0.006322619 -0.010082741 0.16900001 4287188522
-0.0059221275 -0.010082741 0.16900001 4287320108
-0.0055216355 -0.010082741 0.16900001 4287385388
-0.005121144 -0.010082741 0.16900001 4287056423
-0.004720652 -0.010082741 0.16900001 4287253030
-0.00432016 -0.010082741 0.16900001 4286660893
-0.0039196685 -0.010082741 0.16900001 4286595100
-0.0035191767 -0.010082741 0.16900001 4286463514
-0.003118685 -0.010082741 0.16900001 4286791709
-0.0027181935 -0.010082741 0.16900001 4286594330
-0.0023177015 -0.010082741 0.16900001 4286594584
-0.0019172099 -0.010082741 0.16900001 4286857754
-0.0015167182 -0.010082741 0.16900001 4286726168
-0.0011162264 -0.010082741 0.16900001 4286792731
-0.00071573473 -0.010082741 0.16900001 4286792731
-0.000315243 -0.010082741 0.16900001 4286661145
8.5248714e-05 -0.010082741 0.16900001 4286661145
0.00048574043 -0.010082741 0.16900001 4286595352
0.00088623213 -0.010082741 0.16900001 4286595352
0.0012867239 -0.010082741 0.16900001 4286397975
0.0016872156 -0.010082741 0.16900001 4286332182
0.0020877072 -0.010082741 0.16900001 4286332182
0.0024881992 -0.010082741 0.16900001 4286332182
0.0028886907 -0.010082741 0.16900001 4286661147
0.0032891827 -0.010082741 0.16900001 4286463768
0.0036896742 -0.010082741 0.16900001 4286397975
0.0040901657 -0.010082741 0.16900001 4286463768
0.0044906577 -0.010082741 0.16900001 4286727710
0.0048911492 -0.010082741 0.16900001 4286661917
0.0052916408 -0.010082741 0.16900001 4286662176
0.0056921327 -0.010082741 0.16900001 4286727969
0.0060926247 -0.010082741 0.16900001 4286662176
0.0064931163 -0.010082741 0.16900001 4286925348
0.0069343979 -0.010142401 0.17 4286727717
0.0073372596 -0.010142401 0.17 4286727717
0.0077401209 -0.010142401 0.17 4286727204
0.0081429817 -0.010142401 0.17 4286727204
0.0085458439 -0.010142401 0.17 4286530079
0.0089487052 -0.010142401 0.17 4286530079
0.0093515664 -0.010142401 0.17 4286595870
0.0098118074 -0.010202062 0.171 4286793249
0.010217038 -0.010202062 0.171 4287055651
0.01062227 -0.010202062 0.171 4286726686
0.011027501 -0.010202062 0.171 4286530079
0.011432732 -0.010202062 0.171 4286464286
0.011837964 -0.010202062 0.171 4286595620
0.012243195 -0.010202062 0.171 4286792999
0.012648427 -0.010202062 0.171 4286531108
0.013053657 -0.010202062 0.171 4286991659
0.013537596 -0.010261724 0.17200001 4286926120
0.013945196 -0.010261724 0.17200001 4286926120
0.014352798 -0.010261724 0.17200001 4286794534
0.014760399 -0.010261724 0.17200001 4286794534
0.015167999 -0.010261724 0.17200001 4286728741
0.015575601 -0.010261724 0.17200001 4286728741
0.015983202 -0.010261724 0.17200001 4286269737
0.016390802 -0.010261724 0.17200001 4287125046
0.016896069 -0.010321385 0.17300001 4287393624
0.017306039 -0.010321385 0.17300001 4287196245
0.017716011 -0.010321385 0.17300001 4286803803
0.018230757 -0.010381047 0.17400001 4286869596
0.018643096 -0.010381047 0.17400001 4286869596
0.019055437 -0.010381047 0.17400001 4286803803
0.019579662 -0.010440708 0.17500001 4286671963
0.019994373 -0.010440708 0.17500001 4286606170
0.020409083 -0.010440708 0.17500001 4286606170
0.020942787 -0.01050037 0.17600001 4286803549
0.021359866 -0.01050037 0.17600001 4286803549
0.021776946 -0.01050037 0.17600001 4286540377
0.022320129 -0.010560029 0.177 4286934367
0.022739578 -0.010560029 0.177 4286013265
0.023159027 -0.010560029 0.177 4282524951
0.023711689 -0.010619691 0.178 4281998607
0.024133509 -0.010619691 0.178 4283906858
0.024555329 -0.010619691 0.178 4285946441
0.02511747 -0.010679352 0.17900001 4285420613
0.025684349 -0.010739014 0.18000001 4284960062
0.026110908 -0.010739014 0.18000001 4283971886
0.026684899 -0.010798675 0.18100001 4284103472
0.027113829 -0.010798675 0.18100001 4286340434
0.027694929 -0.010858336 0.18200001 4286274641
0.028126225 -0.010858336 0.18200001 4283775538
0.028714435 -0.010917997 0.18300001 4283446573
0.029307382 -0.010977658 0.18400002 4283513651
0.02990507 -0.011037319 0.185 4283513651
0.030343477 -0.011037319 0.185 4283580219
0.030948272 -0.01109698 0.186 4284106563
0.03155781 -0.011156642 0.18700001 4284304712
0.032172088 -0.011216303 0.18800001 4284699470
0.0327911 -0.011275964 0.18900001 4284437579
-0.023550216 -0.010025998 0.17500001 4288110405
-0.023135506 -0.010025998 0.17500001 4288836445
-0.022720795 -0.010025998 0.17500001 4286665276
-0.022306083 -0.010025998 0.17500001 4288112974
-0.021766279 -0.0099687064 0.17400001 4285941805
-0.02135394 -0.0099687064 0.17400001 4286204977
-0.020941598 -0.0099687064 0.17400001 4286665528
-0.020529259 -0.0099687064 0.17400001 4286467125
-0.020001302 -0.0099114142 0.17300001 4286467125
-0.019591331 -0.0099114142 0.17300001 4286400049
-0.019181361 -0.0099114142 0.17300001 4286202670
-0.018771391 -0.0099114142 0.17300001 4286202410
-0.018255284 -0.009854123 0.17200001 4286333996
-0.017847683 -0.009854123 0.17200001 4286991411
-0.017440083 -0.009854123 0.17200001 4286991411
-0.01703248 -0.009854123 0.17200001 4286991409
-0.016528225 -0.0097968318 0.171 4287057202
-0.016122991 -0.0097968318 0.171 4287056686
-0.01571776 -0.0097968318 0.171 4287122479
-0.01531253 -0.0097968318 0.171 4286990893
-0.014907298 -0.0097968318 0.171 4286661928
-0.014502067 -0.0097968318 0.171 4286661415
-0.014014398 -0.0097395396 0.17 4286793001
-0.013611537 -0.0097395396 0.17 4286859307
-0.013208675 -0.0097395396 0.17 4286990893
-0.012805813 -0.0097395396 0.17 4287056686
-0.012402953 -0.0097395396 0.17 4287122479
-0.01200009 -0.0097395396 0.17 4286925098
-0.01159723 -0.0097395396 0.17 4286925098
-0.011194368 -0.0097395396 0.17 4287187755
-0.010728028 -0.0096822493 0.16900001 4287121962
-0.010327537 -0.0096822493 0.16900001 4286924837
-0.0099270437 -0.0096822493 0.16900001 4286990630
-0.0095265526 -0.0096822493 0.16900001 4287187239
-0.0091260606 -0.0096822493 0.16900001 4287121446
-0.0087255696 -0.0096822493 0.16900001 4286990630
-0.0083250776 -0.0096822493 0.16900001 4287253802
-0.0079245856 -0.0096822493 0.16900001 4287385388
-0.0075240936 -0.0096822493 0.16900001 4287385388
-0.0071236021 -0.0096822493 0.16900001 4287516974
-0.0067231106 -0.0096822493 0.16900001 4287451181
-0.006322619 -0.0096822493 0.16900001 4287451179
-0.0059221275 -0.0096822493 0.16900001 4287253800
-0.0055216355 -0.0096822493 0.16900001 4287122214
-0.005121144 -0.0096822493 0.16900001 4286727456
-0.004720652 -0.0096822493 0.16900001 4286726686
-0.00432016 -0.0096822493 0.16900001 4286726686
-0.0039196685 -0.0096822493 0.16900001 4286595100
-0.0035191767 -0.0096822493 0.16900001 4286463514
-0.003118685 -0.0096822493 0.16900001 4286725916
-0.0027181935 -0.0096822493 0.16900001 4286594330
-0.0023177015 -0.0096822493 0.16900001 4286989088
-0.0019172099 -0.0096822493 0.16900001 4286858526
-0.0015167182 -0.0096822493 0.16900001 4286726940
-0.0011162264 -0.0096822493 0.16900001 4286726940
-0.00071573473 -0.0096822493 0.16900001 4286595354
-0.00031337765 -0.009624958 0.16800001 4286595354
8.4744279e-05 -0.009624958 0.16800001 4286595354
0.00048286622 -0.009624958 0.16800001 4286726168
0.00088098814 -0.009624958 0.16800001 4286462996
0.0012791101 -0.009624958 0.16800001 4286462996
0.0016872156 -0.0096822493 0.16900001 4286528789
0.0020877072 -0.0096822493 0.16900001 4286528789
0.0024881992 -0.0096822493 0.16900001 4286528789
0.0028886907 -0.0096822493 0.16900001 4286463768
0.0032891827 -0.0096822493 0.16900001 4286397975
0.0036896742 -0.0096822493 0.16900001 4286463766
0.0040901657 -0.0096822493 0.16900001 4286726938
0.0044906577 -0.0096822493 0.16900001 4286661915
0.0048911492 -0.0096822493 0.16900001 4286530329
0.0052916408 -0.0096822493 0.16900001 4286465049
0.0056921327 -0.0096822493 0.16900001 4286596635
0.0060926247 -0.0096822493 0.16900001 4286859809
0.0064931163 -0.0096822493 0.16900001 4286596637
0.0068936083 -0.0096822493 0.16900001 4286530590
0.0073372596 -0.0097395396 0.17 4286596383
0.0077401209 -0.0097395396 0.17 4286595872
0.0081429817 -0.0097395396 0.17 4286661665
0.0085458439 -0.0097395396 0.17 4287056423
0.0089487052 -0.0097395396 0.17 4287122216
0.0093515664 -0.0097395396 0.17 4286595872
0.0097544286 -0.0097395396 0.17 4286595872
0.010217038 -0.0097968318 0.171 4286661665
0.01062227 -0.0097968318 0.171 4286530079
0.011027501 -0.0097968318 0.171 4286464545
0.011432732 -0.0097968318 0.171 4286464545
0.011837964 -0.0097968318 0.171 4286860077
0.012243195 -0.0097968318 0.171 4286794284
0.012648427 -0.0097968318 0.171 4286729004
0.013053657 -0.0097968318 0.171 4286794797
0.013458889 -0.0097968318 0.171 4286794282
0.013945196 -0.009854123 0.17200001 4286596903
0.014352798 -0.009854123 0.17200001 4286531108
0.014760399 -0.009854123 0.17200001 4286531108
0.015167999 -0.009854123 0.17200001 4286596901
0.015575601 -0.009854123 0.17200001 4286728487
0.015983202 -0.009854123 0.17200001 4286203944
0.016390802 -0.009854123 0.17200001 4286861874
0.016798405 -0.009854123 0.17200001 4287392854
0.017306039 -0.0099114142 0.17300001 4287195475
0.017716011 -0.0099114142 0.17300001 4286803801
0.018125981 -0.0099114142 0.17300001 4286869594
0.018643096 -0.0099687064 0.17400001 4286869596
0.019055437 -0.0099687064 0.17400001 4286869596
0.019579662 -0.010025998 0.17500001 4286869342
0.019994373 -0.010025998 0.17500001 4286671963
0.020409083 -0.010025998 0.17500001 4286671963
0.020942787 -0.010083289 0.17600001 4286474584
0.021359866 -0.010083289 0.17600001 4286474584
0.021776946 -0.010083289 0.17600001 4286540377
0.022320129 -0.01014058 0.177 4286802779
0.022739578 -0.01014058 0.177 4286276435
0.023159027 -0.01014058 0.177 4282722332
0.023711689 -0.010197871 0.178 4282261781
0.024133509 -0.010197871 0.178 4283248674
0.024555329 -0.010197871 0.178 4286406738
0.02511747 -0.010255163 0.17900001 4286274639
0.025684349 -0.010312455 0.18000001 4284235056
0.026110908 -0.010312455 0.18000001 4283972138
0.026684899 -0.010369746 0.18100001 4286011721
0.027113829 -0.010369746 0.18100001 4286735192
0.027694929 -0.010427037 0.18200001 4284103472
0.028126225 -0.010427037 0.18200001 4283051815
0.028714435 -0.010484328 0.18300001 4283446573
0.029307382 -0.010541621 0.18400002 4283119407
0.02990507 -0.010598911 0.185 4283250993
0.030343477 -0.010598911 0.185 4283580217
0.030948272 -0.010656202 0.186 4284106561
0.03155781 -0.010713494 0.18700001 4284436298
0.032172088 -0.010770786 0.18800001 4284633677
-0.023135506 -0.0096112872 0.17500001 4286070824
-0.022720795 -0.0096112872 0.17500001 4286268203
-0.022306083 -0.0096112872 0.17500001 4286137131
-0.021766279 -0.0095563652 0.17400001 4286334510
-0.02135394 -0.0095563652 0.17400001 4286400301
-0.020941598 -0.0095563652 0.17400001 4286663473
-0.020411273 -0.0095014442 0.17300001 4286597932
-0.020001302 -0.0095014442 0.17300001 4286597932
-0.019591331 -0.0095014442 0.17300001 4286728491
-0.019181361 -0.0095014442 0.17300001 4286465319
-0.018662885 -0.0094465222 0.17200001 4286465317
-0.018255284 -0.0094465222 0.17200001 4286794282
-0.017847683 -0.0094465222 0.17200001 4286990893
-0.017440083 -0.0094465222 0.17200001 4286925100
-0.01703248 -0.0094465222 0.17200001 4287056686
-0.016528225 -0.0093916003 0.171 4286727721
-0.016122991 -0.0093916003 0.171 4286727719
-0.01571776 -0.0093916003 0.171 4286925098
-0.01531253 -0.0093916003 0.171 4286661926
-0.014907298 -0.0093916003 0.171 4286727719
-0.014502067 -0.0093916003 0.171 4286661924
-0.014014398 -0.0093366783 0.17 4286859303
-0.013611537 -0.0093366783 0.17 4286727719
-0.013208675 -0.0093366783 0.17 4286990891
-0.012805813 -0.0093366783 0.17 4286860075
-0.012402953 -0.0093366783 0.17 4286860075
-0.01200009 -0.0093366783 0.17 4286661926
-0.01159723 -0.0093366783 0.17 4286859305
-0.01112852 -0.0092817573 0.16900001 4286925098
-0.010728028 -0.0092817573 0.16900001 4286859305
-0.010327537 -0.0092817573 0.16900001 4286727719
-0.0099270437 -0.0092817573 0.16900001 4286925098
-0.0095265526 -0.0092817573 0.16900001 4286859305
-0.0091260606 -0.0092817573 0.16900001 4286859305
-0.0087255696 -0.0092817573 0.16900001 4287056682
-0.0083250776 -0.0092817573 0.16900001 4286925096
-0.0079245856 -0.0092817573 0.16900001 4286728487
-0.0075240936 -0.0092817573 0.16900001 4286728487
-0.0071236021 -0.0092817573 0.16900001 4287123758
-0.0067231106 -0.0092817573 0.16900001 4287321137
-0.006322619 -0.0092817573 0.16900001 4286795047
-0.0059221275 -0.0092817573 0.16900001 4286268703
-0.0055216355 -0.0092817573 0.16900001 4286136604
-0.005121144 -0.0092817573 0.16900001 4286070811
-0.004720652 -0.0092817573 0.16900001 4286005016
-0.00432016 -0.0092817573 0.16900001 4286136602
-0.0039196685 -0.0092817573 0.16900001 4286070809
-0.0035191767 -0.0092817573 0.16900001 4285807637
-0.003118685 -0.0092817573 0.16900001 4285741592
-0.0027181935 -0.0092817573 0.16900001 4285873178
-0.0023177015 -0.0092817573 0.16900001 4286267166
-0.0019058655 -0.0092268363 0.16800001 4286004764
-0.0015077435 -0.0092268363 0.16800001 4285873178
-0.0011096216 -0.0092268363 0.16800001 4285873432
-0.0007114996 -0.0092268363 0.16800001 4285939225
-0.00031337765 -0.0092268363 0.16800001 4286136604
8.4744279e-05 -0.0092268363 0.16800001 4286070811
0.00048286622 -0.0092268363 0.16800001 4285939223
0.00088098814 -0.0092268363 0.16800001 4285741844
0.0012791101 -0.0092268363 0.16800001 4285939223
0.0016772321 -0.0092268363 0.16800001 4286005016
0.0020753539 -0.0092268363 0.16800001 4285741844
0.0024734759 -0.0092268363 0.16800001 4285873430
0.0028715979 -0.0092268363 0.16800001 4285873430
0.0032891827 -0.0092817573 0.16900001 4285807637
0.0036896742 -0.0092817573 0.16900001 4286268188
0.0040901657 -0.0092817573 0.16900001 4286268188
0.0044906577 -0.0092817573 0.16900001 4286071322
0.0048911492 -0.0092817573 0.16900001 4286071322
0.0052916408 -0.0092817573 0.16900001 4286861354
0.0056921327 -0.0092817573 0.16900001 4286400803
0.0060926247 -0.0092817573 0.16900001 4285939998
0.0064931163 -0.0092817573 0.16900001 4285742619
