# .PCD v0.7 - Point Cloud Data file format
VERSION 0.7
FIELDS x y z
SIZE 4 4 4
TYPE F F F
COUNT 1 1 1
WIDTH 959
HEIGHT 1
VIEWPOINT 0 0 0 1 0 0 0
POINTS 959
DATA ascii
0.18194422 -0.25687227 0.21289241
0.18174566 -0.25622755 0.21327654
0.18144932 -0.25510037 0.2149076
0.18184386 -0.25369629 0.21647052
0.1981618 -0.25288001 0.20102173
0.18580291 -0.26484048 0.20704842
0.18542704 -0.26340598 0.20841666
0.18445994 -0.26225248 0.20909879
0.18461226 -0.26082945 0.21059991
0.18493229 -0.25906813 0.21232815
0.18609798 -0.25761351 0.21370828
0.18375763 -0.25813538 0.21295625
0.18466797 -0.25660193 0.21451949
0.18588242 -0.25507361 0.21569297
0.18308485 -0.2553387 0.21537389
0.18388729 -0.25427443 0.21642756
0.19966525 -0.25630453 0.19991855
0.19884837 -0.25439125 0.20049882
0.19916686 -0.25584769 0.20158452
0.19870223 -0.2546075 0.20225987
0.19805741 -0.25473255 0.20472735
0.19408754 -0.25516486 0.20951453
0.18753907 -0.26610693 0.206236
0.18835589 -0.26500422 0.20787936
0.19276857 -0.25535864 0.21095584
0.18707854 -0.26391301 0.20851219
0.18779221 -0.26231155 0.21007009
0.18881677 -0.26035765 0.21154957
0.19002965 -0.25777641 0.21272384
0.19087616 -0.25584835 0.21289444
0.18645361 -0.26116833 0.21078268
0.18710172 -0.25957054 0.2121855
0.18789949 -0.25748301 0.21355647
0.18851203 -0.25555342 0.21438424
0.20058337 -0.25890821 0.20058681
0.20020886 -0.25793043 0.20049791
0.19949578 -0.25759143 0.20265369
0.19888259 -0.25585103 0.20324953
0.19855881 -0.25775424 0.20514694
0.19812578 -0.25603136 0.20517594
0.19718823 -0.25804341 0.20736045
0.19696261 -0.25610918 0.2073469
0.1912376 -0.26683307 0.20648804
0.19446534 -0.26046759 0.20934714
0.19520095 -0.25856623 0.20920439
0.19532895 -0.25625759 0.20906399
0.18990228 -0.26658189 0.20684811
0.19024381 -0.26514444 0.2081621
0.19105788 -0.26319486 0.20950347
0.1927104 -0.26101819 0.21020798
0.19290692 -0.25851738 0.21094076
0.19285265 -0.2566649 0.21126671
0.18937486 -0.26238361 0.21013471
0.19058888 -0.26056984 0.21113861
0.19092667 -0.25837606 0.21210541
0.20554841 -0.2602205 0.19886564
0.20555684 -0.25933367 0.19847167
0.20408313 -0.26020047 0.19955762
0.20411047 -0.25935394 0.19941364
0.2021997 -0.26061073 0.20145172
0.20068578 -0.26078877 0.2033525
0.1998893 -0.25932884 0.20329994
0.19918218 -0.261204 0.20563525
0.1988894 -0.25941741 0.20536776
0.19687052 -0.26350772 0.20756637
0.19739671 -0.2617802 0.20726515
0.19728035 -0.25950813 0.20730689
0.19366144 -0.26619762 0.20781651
0.19487116 -0.26422936 0.20839818
0.19526877 -0.26169851 0.2085636
0.19601303 -0.25966975 0.20846801
0.19201055 -0.26553744 0.20816973
0.1928471 -0.26390609 0.20899041
0.193351 -0.26231417 0.20953959
0.21507698 -0.29137912 0.15885568
0.21434046 -0.29104352 0.16015537
0.20942263 -0.25978094 0.19783412
0.20765358 -0.2600725 0.19852912
0.20551217 -0.26218837 0.20151442
0.20327909 -0.26262751 0.20232359
0.2018435 -0.26293668 0.20411503
0.20019512 -0.26321882 0.20604976
0.19773808 -0.26438975 0.20743918
0.19847083 -0.26334363 0.2069943
0.19615588 -0.2653293 0.2077693
0.2190907 -0.29369578 0.15596843
0.21817185 -0.29322064 0.15711401
0.21713151 -0.29259956 0.15768582
0.21696055 -0.29238477 0.16010101
0.21445209 -0.29268807 0.16396014
0.20994949 -0.29728562 0.16549644
0.21003 -0.29790902 0.16552159
0.21555118 -0.25844344 0.19591561
0.21219105 -0.25920016 0.19685544
0.21399318 -0.25952512 0.19690534
0.21130532 -0.2610563 0.19834241
0.20908125 -0.26266474 0.20031567
0.20933418 -0.26155543 0.1990388
0.207489 -0.2636036 0.20191883
0.20566051 -0.26530364 0.20326416
0.20552519 -0.26428816 0.20304933
0.20476748 -0.26541832 0.20440842
0.20409909 -0.26508537 0.205303
0.20190905 -0.26596272 0.20814788
0.20297848 -0.26541683 0.20718513
0.20040333 -0.26586246 0.20834352
0.22119589 -0.29440722 0.15664239
0.22015311 -0.29398879 0.15735395
0.21989077 -0.29372594 0.15905404
0.21825062 -0.29273829 0.16071856
0.21639083 -0.29238614 0.16292699
0.21779199 -0.29267156 0.16445667
0.21546426 -0.29262418 0.16420031
0.21674822 -0.29233027 0.16500774
0.20968637 -0.29899037 0.16705054
0.20793411 -0.30002329 0.16880363
0.20902851 -0.29983681 0.16832687
0.22039767 -0.25913829 0.19422045
0.20190492 -0.30095276 0.17931263
0.21720621 -0.25959897 0.19663684
0.20074689 -0.30041373 0.18122941
0.19939363 -0.29876181 0.18275788
0.2146316 -0.26119488 0.19801399
0.19880623 -0.29917151 0.18444401
0.21257503 -0.26374736 0.1998858
0.21316972 -0.26257494 0.1991026
0.19620894 -0.29980436 0.18696639
0.19674323 -0.29953152 0.18648563
0.21085578 -0.26409757 0.20084441
0.19513637 -0.30053815 0.18837932
0.20839818 -0.26615223 0.20261265
0.20888568 -0.26514068 0.20225932
0.19353646 -0.30065823 0.18988109
0.20663257 -0.26534957 0.20311494
0.20545621 -0.26663217 0.20628023
0.20404282 -0.26575729 0.20661205
0.19045594 -0.30034941 0.1949113
0.20365021 -0.26712465 0.20852439
0.18981382 -0.29901677 0.19685075
0.19048171 -0.29690513 0.19945252
0.22290313 -0.29477587 0.15826866
0.22180018 -0.29419345 0.16027485
0.22006874 -0.29316953 0.1618681
0.2204944 -0.29286534 0.16297111
0.21912444 -0.2927371 0.16444603
0.21876495 -0.29299814 0.16669919
0.20844467 -0.30283937 0.17328243
0.20658523 -0.30295503 0.17502691
0.20476821 -0.30243585 0.1759091
0.22249241 -0.26024708 0.19447049
0.20355891 -0.30213886 0.17776203
0.20374048 -0.30214894 0.17933361
0.22040853 -0.26053056 0.19591349
0.20197636 -0.30099225 0.18094665
0.21866623 -0.26242024 0.19820096
0.21923542 -0.2614843 0.19748789
0.2013579 -0.30030191 0.18174693
0.21672028 -0.26319462 0.19908431
0.21761538 -0.26175064 0.19832262
0.19942324 -0.29963577 0.1860507
0.21387799 -0.26559424 0.20076758
0.21477678 -0.26400748 0.19956398
0.19810802 -0.2998372 0.18739933
0.21139365 -0.26719287 0.20216662
0.2120727 -0.26631323 0.2017391
0.19570589 -0.30053374 0.18884799
0.19663747 -0.30022031 0.18822801
0.21042389 -0.26714656 0.2023126
0.21051332 -0.26665154 0.20242713
0.20884083 -0.26844588 0.2059834
0.19200704 -0.30122334 0.193753
0.20715378 -0.26854169 0.20727101
0.19147487 -0.30093741 0.19428167
0.19236867 -0.30101305 0.19617671
0.20587285 -0.2686373 0.20926577
0.19122469 -0.29959947 0.19732077
0.19182897 -0.29884917 0.19897011
0.20479807 -0.26960668 0.21158637
0.19140324 -0.29532039 0.20150863
0.19209196 -0.2939831 0.20288591
0.19390982 -0.29027855 0.20655406
0.22509971 -0.29502556 0.16016927
0.22598229 -0.29489943 0.16142263
0.22383964 -0.29468215 0.16115627
0.22465986 -0.29460865 0.16257277
0.22336863 -0.2939496 0.16455813
0.221662 -0.29341733 0.16675182
0.22005267 -0.29340068 0.16778055
0.21008179 -0.30289823 0.17334302
0.22767018 -0.2614314 0.19258204
0.20850936 -0.30324379 0.17506877
0.20963526 -0.30337036 0.17614409
0.22586274 -0.26158595 0.19325686
0.20682594 -0.30310804 0.17701894
0.20830376 -0.30354118 0.1778497
0.22411564 -0.26190457 0.19476153
0.20555145 -0.30281895 0.17985103
0.22212854 -0.26376605 0.19768073
0.22223462 -0.26258254 0.19660048
0.20433192 -0.30223143 0.18171246
0.22010942 -0.26387483 0.19848055
0.20474754 -0.30223429 0.18441826
0.20299676 -0.30059165 0.18497688
0.21769764 -0.26632923 0.20085968
0.21862474 -0.26490676 0.19972388
0.21604989 -0.26700759 0.20132212
0.21375659 -0.26881915 0.20304148
0.21447381 -0.2677393 0.2018415
0.21199 -0.26974189 0.20558122
0.19741328 -0.3031615 0.19332069
0.19711666 -0.30285913 0.19404033
0.21010105 -0.26960939 0.20607403
0.1951765 -0.30258045 0.19435018
0.19566655 -0.30244142 0.19558223
0.20798966 -0.27031454 0.2086623
0.19429336 -0.30132353 0.19736616
0.19471873 -0.30069506 0.19881874
0.20706247 -0.27039024 0.21055196
0.19304381 -0.30013937 0.19844051
0.19408643 -0.29944402 0.20016664
0.19400498 -0.29764634 0.20205633
0.20478691 -0.27203348 0.21323319
0.20532213 -0.27087498 0.21236871
0.19426718 -0.29543537 0.20381726
0.19485265 -0.29324991 0.2058064
0.19510207 -0.29162458 0.20669694
0.19602793 -0.28957254 0.20832655
0.19699973 -0.28748029 0.20929828
0.19797248 -0.2848295 0.21031959
0.19938631 -0.28193849 0.21171875
0.199498 -0.28006324 0.21197635
0.20159809 -0.27729043 0.21298724
0.20359071 -0.2732729 0.21355546
0.19670489 -0.28894359 0.20892897
0.19708791 -0.28810242 0.20931301
0.2275438 -0.29489762 0.16230939
0.22653401 -0.29452384 0.16392294
0.22525255 -0.29406497 0.16559121
0.22588426 -0.29362229 0.16725047
0.22317442 -0.29345539 0.16762461
0.22402085 -0.29320729 0.1688087
0.22419782 -0.29302362 0.1704279
0.22870548 -0.26444167 0.19229679
0.22909257 -0.26292467 0.19217238
0.20953852 -0.30340362 0.17700748
0.22722472 -0.26430926 0.19388629
0.22677264 -0.26319832 0.19335085
0.20917553 -0.30383369 0.17937072
0.225548 -0.26449156 0.19586401
0.22505929 -0.26342824 0.19528218
0.20808512 -0.30359089 0.18163075
0.22370121 -0.26477098 0.197503
0.20674314 -0.30302322 0.18346174
0.20606129 -0.30253664 0.18454598
0.22151494 -0.26732314 0.2001905
0.22197194 -0.26571992 0.19908309
0.20518103 -0.30204314 0.18526515
0.21954699 -0.26770723 0.2010316
0.22020511 -0.2664617 0.20010832
0.21723928 -0.27009761 0.20268604
0.21768458 -0.26876256 0.20197195
0.20162465 -0.30236381 0.19122292
0.21561562 -0.2707257 0.20376422
0.19879727 -0.30322278 0.19257611
0.20093417 -0.30281863 0.1923753
0.21364142 -0.27128041 0.20556159
0.19917016 -0.3031418 0.19424267
0.21198714 -0.27171496 0.2072899
0.19759738 -0.30247068 0.19699323
0.20969458 -0.27289334 0.21014634
0.21032968 -0.2723999 0.20961721
0.19604191 -0.30150667 0.19842435
0.1968818 -0.30122083 0.19973354
0.20874125 -0.27312294 0.2114504
0.20808327 -0.27197069 0.21124744
0.19647558 -0.30011055 0.20123279
0.19612078 -0.29855755 0.20271246
0.19629563 -0.29691985 0.20416367
0.20693977 -0.27362573 0.2136407
0.20677558 -0.27213329 0.2127378
0.19611816 -0.29577133 0.20505308
0.19680843 -0.2944724 0.2063476
0.19764625 -0.29227152 0.20799646
0.19844688 -0.29010412 0.20930125
0.20185739 -0.2830669 0.21268311
0.20199193 -0.28064895 0.21300669
0.2021257 -0.27906883 0.21325521
0.20411456 -0.27649581 0.21416022
0.2050892 -0.27430755 0.21421075
0.19816931 -0.28692761 0.21029137
0.19925165 -0.28505453 0.21133183
0.19980463 -0.28293911 0.21196716
0.22935757 -0.29466352 0.1634322
0.2307661 -0.29430324 0.16430506
0.2284371 -0.29441458 0.16454265
0.22934413 -0.29390115 0.16603419
0.23009476 -0.29324195 0.1679536
0.22773935 -0.29342788 0.16793463
0.22881603 -0.29296452 0.16942799
0.22596651 -0.29301631 0.17006467
0.22705296 -0.29279894 0.1710169
0.23196314 -0.26607054 0.19106877
0.23257422 -0.26404023 0.19147624
0.22972284 -0.2658661 0.19230236
0.22848283 -0.26652771 0.19454631
0.22685155 -0.26673776 0.19669521
0.22516502 -0.26863474 0.19906068
0.22492787 -0.26692754 0.19824761
0.20832813 -0.30354202 0.18541676
0.22332075 -0.26892206 0.20028947
0.22325158 -0.26724938 0.19952789
0.22063534 -0.27137905 0.2021462
0.22091605 -0.26980919 0.20154819
0.21821095 -0.2737408 0.20350908
0.21863028 -0.27192467 0.20298004
0.21669683 -0.27412325 0.20467584
0.21639791 -0.27246046 0.20430067
0.20166664 -0.30312926 0.19369343
0.21477482 -0.27442244 0.20616767
0.21469294 -0.27250835 0.20538826
0.20099002 -0.30319956 0.19596973
0.21365562 -0.2744728 0.20847489
0.21288675 -0.27299687 0.20854305
0.19948031 -0.30276975 0.19738562
0.2000137 -0.30246648 0.19924811
0.21154623 -0.27494621 0.21058059
0.1989052 -0.3013685 0.200969
0.19938126 -0.30069667 0.20237985
0.20957902 -0.2750147 0.21220294
0.19857684 -0.29950315 0.20334259
0.1986925 -0.29761648 0.20520772
0.19971022 -0.2964316 0.20674171
0.20759875 -0.27714407 0.21506307
0.20820454 -0.27561867 0.21416597
0.19841048 -0.29491377 0.20698476
0.19995393 -0.29339916 0.20860097
0.20019327 -0.29126912 0.20967992
0.20095454 -0.28891647 0.21092722
0.2018155 -0.28653345 0.21192835
0.2027715 -0.2845175 0.2128287
0.20374845 -0.28252777 0.21359594
0.20484245 -0.28009647 0.21442994
0.20615092 -0.27772272 0.21495511
0.2058364 -0.27568683 0.21469443
0.23219459 -0.29389489 0.16538903
0.23357886 -0.29331419 0.16679591
0.2312806 -0.29367015 0.16643582
0.23216724 -0.29295647 0.16835675
0.23259455 -0.29230601 0.17018631
0.23037362 -0.29260504 0.17036276
0.23175335 -0.29225522 0.1713461
0.22868268 -0.29251707 0.17212898
0.23059535 -0.29234213 0.17222285
0.23406954 -0.27124009 0.18932918
0.23458351 -0.26953819 0.18947746
0.23523417 -0.26697806 0.19003706
0.23608433 -0.265183 0.19073832
0.23333092 -0.27112201 0.19011371
0.23263334 -0.26941022 0.1910243
0.23330408 -0.26687944 0.190392
0.23434587 -0.26399669 0.19148383
0.23156627 -0.26945573 0.19332026
0.23112226 -0.26791689 0.19314988
0.2298802 -0.26941198 0.19527516
0.2285489 -0.26801741 0.19566989
0.22802925 -0.26985663 0.1974493
0.22783771 -0.26825866 0.19693783
0.22621863 -0.27040192 0.19910721
0.22402516 -0.27269295 0.20092459
0.22409342 -0.27078915 0.20047298
0.22199976 -0.27488196 0.20225221
0.22204646 -0.27295139 0.2019127
0.21894582 -0.2774561 0.20363097
0.21970697 -0.27524838 0.20322256
0.22034532 -0.27320749 0.20274456
0.21703538 -0.27962679 0.20486552
0.21729843 -0.27796522 0.20479406
0.2172294 -0.27577385 0.20467278
0.20449255 -0.30447906 0.19621825
0.21551909 -0.27776784 0.20650387
0.21484506 -0.27618143 0.20708205
0.20370054 -0.30404922 0.19700287
0.20295052 -0.30369934 0.19828185
0.21423461 -0.27789003 0.20859611
0.21393418 -0.27618557 0.20886761
0.20233127 -0.3030276 0.20016199
0.21248505 -0.27776039 0.21069624
0.21254572 -0.27637196 0.21046868
0.20145035 -0.30220971 0.20137468
0.20152526 -0.3009918 0.20323253
0.20224141 -0.29971918 0.20502448
0.21125874 -0.27801582 0.2129631
0.21038055 -0.27676415 0.21316962
0.20126252 -0.29865333 0.20559898
0.20158264 -0.29669419 0.20743687
0.20215046 -0.29493952 0.20881777
0.20350708 -0.29291373 0.21036059
0.20414291 -0.29169664 0.21098316
0.2081802 -0.28146282 0.21499997
0.20916693 -0.27877536 0.21491437
0.20980503 -0.27705252 0.21407245
0.20213291 -0.29201585 0.2102544
0.20331602 -0.29007649 0.21138385
0.20408793 -0.28804204 0.21234316
0.20506003 -0.2859498 0.2133145
0.20626752 -0.28354594 0.21434954
0.20679948 -0.28085595 0.2150179
0.20688979 -0.27924392 0.21523279
0.23496096 -0.29285595 0.16780645
0.23627119 -0.29223901 0.16919933
0.2341533 -0.29260707 0.16869201
0.23483865 -0.29193372 0.17072463
0.23569968 -0.29121083 0.17248428
0.23313075 -0.29178846 0.1725709
0.23445587 -0.29128218 0.17375267
0.23172864 -0.29229191 0.17407557
0.2352003 -0.27917862 0.18499199
0.23574519 -0.27746326 0.1856017
0.23646241 -0.27505907 0.18642437
0.23720933 -0.27280062 0.18721992
0.23804472 -0.27048501 0.18813814
0.2389669 -0.26819947 0.18904316
0.23970786 -0.26621827 0.18981448
0.23490642 -0.27724558 0.18728173
0.23481397 -0.27498081 0.18842131
0.23464718 -0.27249777 0.18869242
0.23593044 -0.27014133 0.18880817
0.23682943 -0.26797977 0.18957092
0.23776139 -0.26529652 0.19055483
0.2341655 -0.27455863 0.190579
0.23341493 -0.27289906 0.19128563
0.23254181 -0.27139798 0.1922303
0.23260294 -0.27311164 0.19355819
0.23188941 -0.27122244 0.19371387
0.23095055 -0.27303857 0.19611014
0.23059154 -0.27144712 0.19562986
0.22922866 -0.27363977 0.19778734
0.22882047 -0.27179581 0.19749768
0.22697808 -0.2756654 0.19988042
0.22723891 -0.27379128 0.19930531
0.22744887 -0.27187866 0.19868813
0.22491211 -0.27624434 0.20125346
0.2251474 -0.27408808 0.20071076
0.22272149 -0.27865702 0.20246008
0.22282253 -0.27649286 0.20224756
0.20966984 -0.30645338 0.19379576
0.21956727 -0.28309715 0.20341009
0.2198461 -0.28120062 0.20315208
0.22034816 -0.27873853 0.20317185
0.22113639 -0.2767083 0.20288759
0.20768127 -0.3058539 0.19499916
0.21830663 -0.28307459 0.20470132
0.21774277 -0.28104517 0.20457555
0.20647846 -0.30527025 0.19685338
0.21717905 -0.28155369 0.20711586
0.21658432 -0.28020313 0.20771204
0.20537041 -0.30427599 0.19958234
0.21598993 -0.28135365 0.20976518
0.21553834 -0.28051344 0.20993093
0.2040655 -0.30330765 0.20109114
0.20489246 -0.30266398 0.20270017
0.21454996 -0.28159499 0.2119744
0.21426402 -0.28068089 0.21195054
0.20376717 -0.30157647 0.20371778
0.20421343 -0.30010489 0.20551306
0.20521972 -0.29867768 0.20722891
0.212216 -0.28239202 0.21379113
0.2123054 -0.28027058 0.21361281
0.20368312 -0.29757282 0.20757714
0.20462583 -0.29576811 0.20916292
0.20554122 -0.29368305 0.21055174
0.20606998 -0.29131806 0.21165159
0.20653419 -0.28890634 0.21270314
0.20795026 -0.28685495 0.2136343
0.20905969 -0.28455347 0.21429902
0.21004003 -0.28222686 0.21467505
0.21039264 -0.28032362 0.21472965
0.23738977 -0.29151052 0.17016876
0.23863274 -0.2907567 0.17130144
0.23998117 -0.28980011 0.17253859
0.23725885 -0.29061356 0.17239979
0.23884819 -0.28911957 0.17407115
0.23951751 -0.28783152 0.17555007
0.23564956 -0.29053169 0.17436646
0.23693125 -0.28883448 0.17563099
0.23818743 -0.28703767 0.17698768
0.23882054 -0.28557089 0.17861159
0.23299591 -0.29225081 0.17587243
0.2341368 -0.29111421 0.17670214
0.23495705 -0.28888407 0.1776751
0.23604207 -0.28672099 0.17871282
0.23736097 -0.28489232 0.17997305
0.23830478 -0.28286996 0.18128046
0.23893663 -0.28053713 0.18255915
0.23994887 -0.27835417 0.18362045
0.2408888 -0.27623558 0.1846468
0.24181922 -0.27376205 0.18561389
0.2429959 -0.27158055 0.18613018
0.24345924 -0.26960364 0.18765686
0.2443575 -0.26774028 0.18855511
0.23434421 -0.28880054 0.179454
0.23495372 -0.2868939 0.18066913
0.23550187 -0.28488344 0.18165085
0.23634896 -0.28251213 0.18254003
0.23717645 -0.28012598 0.183413
0.23804411 -0.27786398 0.1843123
0.23896888 -0.27564472 0.18525769
0.23981851 -0.27346316 0.18613601
0.24087985 -0.27125227 0.18719788
0.24198323 -0.26907337 0.18829493
0.24279299 -0.2671437 0.18912175
0.23523912 -0.28470013 0.18331064
0.2352125 -0.28260893 0.18448284
0.23507699 -0.28039783 0.18490541
0.2237508 -0.30825698 0.17745066
0.23461525 -0.2807489 0.1877228
0.23480171 -0.27853397 0.18876363
0.23485972 -0.27651325 0.18972391
0.23467234 -0.27861208 0.19125499
0.23438795 -0.27643937 0.19163457
0.23346221 -0.27655718 0.19390225
0.2328479 -0.27462465 0.19400501
0.23199314 -0.27674267 0.19666953
0.23161346 -0.27479389 0.19622914
0.2300245 -0.27695504 0.19832909
0.22987404 -0.27535993 0.19788018
0.21519852 -0.30774158 0.1880178
0.22747447 -0.27960539 0.20014876
0.22806039 -0.27728891 0.19962184
0.22521311 -0.28190368 0.20104051
0.22551069 -0.27978018 0.2011009
0.2259261 -0.27754048 0.20088473
0.21343254 -0.30764851 0.19262385
0.22267433 -0.28414094 0.20217271
0.22317162 -0.28224203 0.20195946
0.22331598 -0.28011164 0.20215842
0.21152766 -0.30710697 0.19388349
0.22086777 -0.2843951 0.2032178
0.22112864 -0.28233737 0.20266569
0.21015829 -0.30672792 0.19604219
0.21897134 -0.28440222 0.20514254
0.20869671 -0.30618376 0.19720809
0.20882609 -0.30586469 0.19873714
0.21776415 -0.28477618 0.2074403
0.21725094 -0.28296226 0.20756651
0.20783015 -0.30484179 0.20052689
0.20803772 -0.30389413 0.20231953
0.21616687 -0.28523284 0.20974053
0.21605846 -0.28285056 0.20987873
0.2069423 -0.30274194 0.20349205
0.20780317 -0.30160895 0.20516847
0.21447054 -0.28558233 0.21163596
0.21459039 -0.28302363 0.21188521
0.20638922 -0.30060759 0.20585139
0.20734422 -0.29914322 0.20752881
0.2078027 -0.29716331 0.20915364
0.20865272 -0.29519242 0.21036878
0.20962961 -0.29277143 0.21163729
0.21079248 -0.29033583 0.21264033
0.21185848 -0.28805932 0.21293378
0.21242127 -0.28554523 0.21310359
0.21316002 -0.28328666 0.21313071
0.20647131 -0.29561141 0.20974904
0.20736259 -0.29429975 0.21058728
0.20838457 -0.29207337 0.21176574
0.2089722 -0.28992105 0.21273929
0.20993194 -0.28797466 0.21338001
0.21036039 -0.2861253 0.21373513
0.24106184 -0.28903714 0.17346296
0.24265823 -0.28771827 0.17445838
0.24409828 -0.28631762 0.17541185
0.24033274 -0.28852531 0.17433606
0.24103586 -0.28729177 0.17567319
0.24257632 -0.28583676 0.17700514
0.24348512 -0.28389013 0.17862695
0.24424011 -0.28179857 0.18004173
0.24647532 -0.27642798 0.18232754
0.2473149 -0.27462474 0.1823912
0.2480319 -0.27259579 0.18312156
0.24906075 -0.27027944 0.18402988
0.24984773 -0.26879287 0.18521075
0.23969841 -0.28659832 0.17703813
0.24027389 -0.28527305 0.17842516
0.2414014 -0.28342116 0.17977385
0.24255013 -0.28134122 0.18094711
0.24365538 -0.2792286 0.18208511
0.24464884 -0.2769967 0.18304829
0.2452561 -0.27463213 0.18372762
0.24583514 -0.27208775 0.18435149
0.24698885 -0.2700116 0.18552898
0.2481876 -0.2683754 0.18667462
0.23977892 -0.28289247 0.18078847
0.2404103 -0.28087908 0.18193516
0.24147588 -0.27873638 0.18304022
0.24238308 -0.27646488 0.18416582
0.24315077 -0.27445653 0.18496136
0.24411795 -0.27206922 0.18540789
0.24490932 -0.26973987 0.18702623
0.24585956 -0.26791611 0.18796802
0.23535991 -0.29034868 0.18053758
0.23603249 -0.28904063 0.18182774
0.22755802 -0.30648085 0.17709816
0.22897258 -0.30480492 0.17655897
0.23614438 -0.28599221 0.18446741
0.23585597 -0.28428465 0.18620443
0.22502422 -0.30845401 0.17805696
0.22649167 -0.30788612 0.17826334
0.23569542 -0.28360388 0.18825948
0.23498146 -0.2821224 0.1894318
0.22348979 -0.30953658 0.17966649
0.23484558 -0.28231722 0.19130428
0.234539 -0.28008825 0.19171463
0.22150996 -0.31011894 0.18130855
0.23414059 -0.28208572 0.19351095
0.23378232 -0.2802217 0.19408132
0.23359546 -0.27817613 0.19433984
0.22032349 -0.31024233 0.18384391
0.23262653 -0.28067476 0.19628717
0.23241143 -0.27832833 0.19662029
0.21909514 -0.30978957 0.18598525
0.23038594 -0.28253266 0.19823781
0.23081711 -0.28065196 0.19799827
0.23067769 -0.2784752 0.19824329
0.21739659 -0.30899897 0.18765819
0.21754518 -0.30881193 0.18896538
0.22743893 -0.28504127 0.20001161
0.22813162 -0.28306183 0.19953559
0.2286817 -0.28063449 0.19952276
0.21636182 -0.30851737 0.19079874
0.22594041 -0.28531063 0.20081148
0.22597328 -0.28317457 0.20051773
0.21511966 -0.30803671 0.19301312
0.2239237 -0.28573272 0.20196199
0.22447358 -0.28353304 0.20138526
0.21325192 -0.3074238 0.19493866
0.21403563 -0.30747768 0.19663066
0.22229779 -0.28785464 0.20482391
0.22197652 -0.28672889 0.20418309
0.21193649 -0.30709156 0.19655247
0.21239461 -0.30690587 0.19799203
0.22071788 -0.28815898 0.20674469
0.22029871 -0.28668219 0.20605388
0.21108881 -0.30603603 0.19981189
0.21156932 -0.30523691 0.20160371
0.21911317 -0.2882382 0.20829195
0.21868466 -0.28696287 0.20795159
0.21034345 -0.30409503 0.20285173
0.21090081 -0.30280912 0.20468803
0.21177278 -0.30177534 0.20613737
0.21689343 -0.28878152 0.21034785
0.21649687 -0.28707641 0.21001144
0.20963725 -0.30174807 0.20562641
0.21042344 -0.30049536 0.20722491
0.21156283 -0.29872078 0.2088466
0.21240103 -0.29720077 0.20981568
0.21377142 -0.29371941 0.21123202
0.2146019 -0.29137829 0.21159607
0.21486406 -0.28891411 0.21160853
0.21497457 -0.28717354 0.21138288
0.20914553 -0.29940712 0.20789418
0.21008059 -0.2978864 0.20915794
0.21097949 -0.29571944 0.21049005
0.21171905 -0.29353786 0.21142265
0.21247296 -0.29124072 0.21216865
0.21319765 -0.28913867 0.21238899
0.24485818 -0.28548059 0.17612799
0.24579328 -0.28405243 0.17699113
0.2469283 -0.28196302 0.1781553
0.2480264 -0.27984557 0.17928876
0.24907285 -0.27765402 0.1802963
0.24950726 -0.27515754 0.18083027
0.25069785 -0.27307525 0.18195717
0.25151604 -0.27074575 0.18285908
0.252074 -0.2686255 0.18347801
0.24418917 -0.28540954 0.1769565
0.24480587 -0.28393954 0.17796186
0.24551013 -0.28180289 0.17927289
0.2463192 -0.27970561 0.18062137
0.24732009 -0.27752542 0.18143205
0.24826489 -0.27540931 0.18160677
0.24953187 -0.27267045 0.18264894
0.25051227 -0.27042079 0.18341002
0.25096878 -0.26839721 0.1846647
0.23113619 -0.30407268 0.17753467
0.23261172 -0.30305699 0.17860584
0.23402916 -0.3010498 0.17910856
0.23517267 -0.29887697 0.17930704
0.23619998 -0.29629812 0.17961851
0.2369113 -0.29409182 0.18112494
0.2374675 -0.29180914 0.18287677
0.23783349 -0.28964555 0.18426979
0.2290955 -0.3072826 0.1790584
0.23047544 -0.30586892 0.17870891
0.23212023 -0.30462766 0.17927514
0.23769841 -0.28745079 0.18635334
0.23764606 -0.28651822 0.1880485
0.22599231 -0.30880386 0.17932484
0.22782421 -0.30847794 0.17998135
0.23700747 -0.28550854 0.18920086
0.2253775 -0.30989313 0.1813958
0.22667795 -0.30948618 0.18148695
0.23621355 -0.28492779 0.19135293
0.2353774 -0.28416938 0.19208868
0.22377989 -0.31048989 0.18342604
0.23420268 -0.28364512 0.19427863
0.22257827 -0.31058621 0.18532051
0.2229463 -0.31042507 0.18684472
0.23292491 -0.28370741 0.19631419
0.22117546 -0.310249 0.18723364
0.22146389 -0.30996403 0.188315
0.23129566 -0.28601539 0.19873945
0.23122533 -0.28411412 0.19794852
0.21964686 -0.30919051 0.19023035
0.22898591 -0.2864255 0.19995677
0.22933562 -0.28458565 0.19914652
0.21832111 -0.30861551 0.19231147
0.21875532 -0.30841422 0.19373715
0.22662516 -0.28866744 0.20184624
0.2269727 -0.28723323 0.2010508
0.21681392 -0.30813897 0.19376893
0.21745645 -0.30813858 0.19533405
0.22507347 -0.28888059 0.20298935
0.22532237 -0.28752571 0.20178005
0.2159895 -0.30761388 0.19741607
0.22334014 -0.28923392 0.20501958
0.21451586 -0.30686897 0.19928406
0.21526077 -0.30638498 0.20059621
0.2218603 -0.28981245 0.20683672
0.21368347 -0.30530763 0.20202902
0.21447103 -0.30401278 0.20400013
0.21973881 -0.29175171 0.20935091
0.22002196 -0.29023442 0.2087523
0.21309248 -0.30302131 0.20498636
0.21408758 -0.30179745 0.20655318
0.21508105 -0.30017075 0.20805976
0.21726272 -0.29448026 0.21032633
0.21798147 -0.29242498 0.21030615
0.21802329 -0.2902714 0.21011366
0.21254009 -0.30085546 0.20724052
0.2135523 -0.29913646 0.20868528
0.21439077 -0.29693472 0.20992416
0.21518686 -0.29476649 0.21065646
0.2159887 -0.29239327 0.21105577
0.21654363 -0.29069206 0.21098146
0.23440592 -0.30171654 0.18035071
0.23601203 -0.29992795 0.18141575
0.23713681 -0.29776305 0.18219079
0.23779626 -0.29568037 0.18289867
0.23882672 -0.29361352 0.18423493
0.23914713 -0.2917583 0.18525644
0.23144224 -0.3062723 0.18028603
0.23321052 -0.30469692 0.18113579
0.2345272 -0.30246514 0.18218638
0.23554282 -0.30079174 0.18324971
0.23669979 -0.29932263 0.18356901
0.23914602 -0.29044625 0.18627445
0.23951244 -0.28974023 0.18803124
0.22915535 -0.30844051 0.18138602
0.23100898 -0.30738771 0.18204911
0.23257996 -0.30611068 0.18235585
0.23900861 -0.28843105 0.18954663
0.23816651 -0.28717864 0.19049221
0.22806269 -0.30944064 0.18344657
0.23005733 -0.30855557 0.18373647
0.23752563 -0.28696379 0.19302087
0.22640111 -0.31007877 0.1852715
0.23583764 -0.28645128 0.19517282
0.23510934 -0.28559899 0.19523497
0.22504435 -0.31006846 0.18739858
0.23440528 -0.28697231 0.19720663
0.23363529 -0.28563979 0.19677024
0.22344002 -0.30973941 0.18951127
0.22436464 -0.30930343 0.19061048
0.23259071 -0.28772143 0.19904295
0.22138785 -0.30913249 0.19138324
0.22260672 -0.30898651 0.19226132
0.23051473 -0.2898947 0.20097199
0.23045656 -0.28847569 0.20041133
0.22073117 -0.30865735 0.19392115
0.22849111 -0.29029649 0.20188218
0.21944973 -0.30825484 0.1966943
0.2197995 -0.30788752 0.19836394
0.22642517 -0.29248458 0.20439878
0.22638476 -0.29111916 0.2036227
0.21790133 -0.30764425 0.19842967
0.21889983 -0.30725411 0.19972734
0.22493777 -0.29293177 0.20579328
0.22439337 -0.29116476 0.20536754
0.21733831 -0.30629498 0.20120087
0.21812327 -0.30514792 0.20306155
0.2223931 -0.29531911 0.20800701
0.22301354 -0.29330459 0.20739847
0.22256304 -0.29137546 0.20707981
0.21579078 -0.30515772 0.20267773
0.21651667 -0.30418062 0.20412855
0.21725963 -0.30279249 0.20587233
0.21833235 -0.30068669 0.20749514
0.21930256 -0.29843664 0.2084379
0.22037993 -0.29588643 0.20886829
0.22067185 -0.2932609 0.2089659
0.21570005 -0.30179474 0.20676723
0.21648568 -0.30004376 0.20808531
0.2172679 -0.29793626 0.20911725
0.2180804 -0.29564109 0.20977786
0.21890093 -0.29352418 0.20990214
0.23929325 -0.29637799 0.1850694
0.23991476 -0.29458913 0.18572508
0.23393238 -0.30448991 0.18269847
0.23438862 -0.30342263 0.18316294
0.2359726 -0.30025545 0.18442874
0.23761627 -0.29924226 0.18512817
0.23928995 -0.29731467 0.18592191
0.24012424 -0.29484081 0.18680951
0.24038811 -0.29249614 0.18821616
0.24006341 -0.29076475 0.18889698
0.23160252 -0.30754673 0.18382952
0.23310073 -0.30593175 0.18431295
0.23421887 -0.30381805 0.18530443
0.23523743 -0.30196828 0.18596977
0.23996025 -0.29038656 0.19091468
0.23926599 -0.28881717 0.19159408
0.22910397 -0.30916327 0.18473308
0.23045522 -0.30841109 0.18554619
0.23218088 -0.3067756 0.18708725
0.23316431 -0.30453557 0.18804088
0.234056 -0.3031581 0.18820468
0.23977923 -0.29046258 0.19328442
0.23870745 -0.28907779 0.19402409
0.22795302 -0.30953181 0.1865031
0.22921205 -0.30877876 0.18762201
0.230813 -0.30705649 0.18909027
0.23178141 -0.30502012 0.18998602
0.2374012 -0.28879854 0.19601384
0.22677411 -0.30964428 0.18780598
0.2275428 -0.30890578 0.18943796
0.22926801 -0.3074027 0.1906454
0.23066889 -0.30573088 0.19090554
0.23562871 -0.28917745 0.19785051
0.22571604 -0.30885085 0.19159678
0.2274437 -0.3083013 0.19240794
0.23368429 -0.29111516 0.20001744
0.2336596 -0.28950214 0.19943334
0.22439477 -0.30890137 0.19376364
0.2256472 -0.30879033 0.19480701
0.23132139 -0.29341874 0.20167246
0.23175751 -0.29166538 0.20109873
0.2228722 -0.30887675 0.19565055
0.22378498 -0.30850157 0.19711941
0.22907121 -0.29579255 0.20330796
0.22942534 -0.29377359 0.20266512
0.22969994 -0.29211742 0.20205477
0.22141165 -0.30850235 0.19687441
0.22210889 -0.30770308 0.19897607
0.22299816 -0.30681518 0.20062499
0.22747669 -0.29616058 0.20461845
0.22739381 -0.29415756 0.20420133
0.22046536 -0.30685842 0.20058727
0.22163409 -0.30597952 0.20203684
0.22239988 -0.30474669 0.20353004
0.2249165 -0.29874009 0.20609738
0.22555679 -0.2967222 0.20594326
0.22551562 -0.29463229 0.20588844
0.22001827 -0.30514473 0.20322607
0.2210266 -0.30370301 0.2048008
0.2218926 -0.30158105 0.20615003
0.22301543 -0.29927224 0.2068039
0.22342937 -0.29664361 0.20725694
0.22392458 -0.29480001 0.20700212
0.21916085 -0.30282152 0.20583421
0.21996051 -0.30112594 0.20695196
0.22085772 -0.29882252 0.20783892
0.22162232 -0.29681212 0.20817274
0.23848403 -0.29971382 0.18689853
0.2395376 -0.29791749 0.18745983
0.24054705 -0.29573077 0.18851495
0.24092498 -0.29393294 0.18938693
0.23626426 -0.3020348 0.18791869
0.23788193 -0.30077249 0.18849419
0.23958266 -0.29874966 0.18958203
0.24054815 -0.29661587 0.19039018
0.24091251 -0.29401338 0.191507
0.24057999 -0.29211426 0.1922944
0.23495822 -0.30288756 0.18966191
0.23666459 -0.30203852 0.19055939
0.24048615 -0.2938329 0.19406131
0.23999947 -0.2920804 0.19443592
0.23925991 -0.29026383 0.19469786
0.23210037 -0.30412009 0.19084971
0.23379883 -0.30333519 0.19164671
0.23536709 -0.3024677 0.1924689
0.23885009 -0.29247501 0.19656548
0.23813541 -0.29046041 0.19649273
0.22963274 -0.30696422 0.19209191
0.23116818 -0.30565158 0.19277136
0.23277339 -0.30394018 0.193818
0.2337276 -0.3030138 0.19456317
0.23661357 -0.29433572 0.19903623
0.23680402 -0.2924211 0.19843343
0.23685567 -0.29040414 0.19772246
0.22839336 -0.30786073 0.19401655
0.23012878 -0.30693245 0.19505848
0.23452017 -0.29493186 0.20025529
0.23452604 -0.29268101 0.19992605
0.22705448 -0.30822781 0.19600481
0.22867639 -0.30743015 0.19703145
0.23232496 -0.29739565 0.2012348
0.23235881 -0.29481936 0.20134005
0.22545955 -0.30804279 0.19771844
0.22682944 -0.30699149 0.19935322
0.23002002 -0.2996622 0.20255357
0.23012003 -0.29745221 0.20262061
0.2305118 -0.29527348 0.20232296
0.2240254 -0.30737513 0.19957559
0.22469586 -0.30638921 0.20102113
0.22600794 -0.30484846 0.20247501
0.22693244 -0.3026281 0.20372456
0.22773492 -0.30008793 0.20414041
0.2278515 -0.29772255 0.20431097
0.22308151 -0.30555254 0.20248315
0.22385028 -0.30429214 0.20368667
0.22485569 -0.30223802 0.20482245
0.2255495 -0.29984459 0.20545483
0.22595763 -0.29823756 0.20561044
0.22341764 -0.30194032 0.20551705
0.23846845 -0.30063057 0.1904752
0.23927383 -0.29943281 0.19097839
0.2403421 -0.29697728 0.19195729
0.24071926 -0.29527083 0.19277154
0.23763014 -0.3012709 0.19164415
0.23875122 -0.29971033 0.19260861
0.23980936 -0.29758886 0.19365647
0.24026427 -0.29523268 0.1942922
0.23623712 -0.30182049 0.19371608
0.23756504 -0.30018336 0.19477665
0.23855929 -0.29795128 0.19573864
0.23906814 -0.29539716 0.19640788
0.2393216 -0.29385555 0.19628626
0.23253903 -0.30429333 0.19531831
0.23439531 -0.30224842 0.19570397
0.23582935 -0.30039442 0.19697243
0.23676166 -0.29811698 0.19788685
0.23722833 -0.29561618 0.19841743
0.23104876 -0.30616599 0.19590689
0.23207648 -0.30479524 0.19673416
0.23305789 -0.30261704 0.19772193
0.2340515 -0.30044791 0.19871925
0.23481871 -0.29802021 0.19955227
0.23543364 -0.29618174 0.19975136
0.22956745 -0.30672434 0.19779389
0.23079997 -0.30521548 0.19886464
0.23179325 -0.30298227 0.19982488
0.23227617 -0.30041149 0.20047972
0.2331412 -0.29839602 0.20050633
0.2281805 -0.30646908 0.19964339
0.22871754 -0.30518878 0.20083281
0.22974968 -0.3029837 0.20182216
0.23024169 -0.30101734 0.20225073
0.2275364 -0.30456063 0.20221514
0.2282159 -0.30281585 0.20291919
