# .PCD v0.7 - Point Cloud Data file format
VERSION 0.7
FIELDS x y z rgb
SIZE 4 4 4 4
TYPE F F F U
COUNT 1 1 1 1
WIDTH 1111
HEIGHT 1
VIEWPOINT 0 0 0 1 0 0 0
POINTS 1111
DATA ascii
0.0065375296 -0.0021359138 0.38519999 3029566
0.007415134 -0.0021281498 0.3838 3095359
0.0082449913 -0.0021098491 0.38049999 3226945
0.0090449387 -0.0020882196 0.3766 3226945
0.0098133814 -0.0020638164 0.37219998 3292738
0.010526697 -0.0020327582 0.36659998 3358018
0.011219917 -0.0020028078 0.3612 3358018
0.012068188 -0.002002798 0.3612 3358018
0.01291645 -0.0020027871 0.3612 3423811
0.013391242 -0.0019484356 0.35139999 3489602
0.014014185 -0.0019206983 0.34639999 3555395
0.014665002 -0.0018996135 0.34259999 3555395
0.015329564 -0.0018824092 0.33949998 3489602
0.016003303 -0.0018679762 0.3369 3555397
0.016714666 -0.0018590863 0.3353 3358018
0.017423715 -0.0018507498 0.33379999 3292225
0.018207524 -0.001850729 0.33379999 3160639
0.018962864 -0.0018479344 0.33329999 3094846
0.019656591 -0.0018395943 0.33179998 2963260
0.020435642 -0.0018395697 0.33179998 2963258
0.021150732 -0.0018339998 0.3308 2897465
0.021861097 -0.0018284284 0.32979998 2831674
0.022601059 -0.0018256278 0.32929999 2831674
0.023303157 -0.0018200541 0.3283 2698803
0.024037195 -0.0018172514 0.32780001 3027768
0.024738586 -0.0018122297 0.32690001 5987416
0.025505943 -0.0018121966 0.32690001 6316381
0.026233079 -0.0018093898 0.32639998 6052950
0.026999194 -0.0018093542 0.32639998 5855571
0.027765278 -0.0018093167 0.32639998 5920594
0.028531326 -0.0018092783 0.32639998 5854801
0.029387094 -0.0018147817 0.3274 5986128
0.03019226 -0.0018169582 0.32780001 5722956
0.031055929 -0.0018224581 0.32879999 5656393
0.031924251 -0.0018279571 0.32979998 5590600
0.032797225 -0.0018334545 0.3308 5261635
0.033573356 -0.0018334081 0.3308 5130049
0.034453284 -0.0018389024 0.33179998 4933440
0.035390943 -0.0018471661 0.33329999 4670268
0.036281321 -0.0018526569 0.33429998 4801854
0.037231799 -0.0018609178 0.33579999 4604475
0.038143963 -0.0018669597 0.3369 4341303
0.039165244 -0.0018779875 0.3389 4538682
0.040089738 -0.0018840263 0.34 4408379
0.041139588 -0.0018956043 0.34209999 5132102
0.042334095 -0.0019132756 0.34529999 4803142
0.043143723 -0.001913214 0.34529999 4868935
0.044296972 -0.0019281106 0.34799999 5329233
0.046214711 -0.0019751389 0.3565 7631988
-0.016977331 -0.0013766205 0.43109998 5657676
-0.015750639 -0.0013581251 0.4253 5591883
-0.014752323 -0.0013581493 0.4253 5591883
-0.013521116 -0.0013351798 0.4181 5329227
-0.012515624 -0.0013326466 0.41729999 4868676
-0.011135124 -0.0012863608 0.40279999 3554625
-0.010004806 -0.0012630663 0.3955 3159867
-0.0089477459 -0.0012451992 0.3899 2897982
-0.0079478547 -0.0012321213 0.3858 2897982
-0.0069945673 -0.0012238324 0.38319999 2832449
-0.006051871 -0.0012152231 0.38049999 2700863
-0.0051408098 -0.0012110838 0.37919998 2766656
-0.0042504026 -0.0012110955 0.37919998 2635070
-0.003353772 -0.0012088704 0.37849998 2766142
-0.0024571524 -0.0012050474 0.37729999 2831935
-0.0015682324 -0.0012028201 0.3766 2766142
-0.00068385497 -0.0012028277 0.3766 2766142
0.0002005376 -0.0012028342 0.3766 2897215
0.0010849434 -0.0012028395 0.3766 2963008
0.0019693614 -0.0012028441 0.3766 2963262
0.0028492429 -0.0012009313 0.37599999 3029055
0.0037322699 -0.0012009337 0.37599999 2963775
0.0045993477 -0.0011967829 0.37469998 2963775
0.0054793353 -0.0011967835 0.37469998 3029568
0.0063372641 -0.001192631 0.3734 3029568
0.0071910196 -0.0011887966 0.37219998 3292738
0.0080239726 -0.0011827255 0.37029999 3292738
0.0088047683 -0.0011709044 0.36659998 3423811
0.0095708221 -0.001159402 0.36300001 3489604
0.010423332 -0.0011593967 0.36300001 3621190
0.011219924 -0.0011536414 0.3612 3621190
0.012068196 -0.001153634 0.3612 3555395
0.012916462 -0.0011536259 0.3612 3555395
0.013223576 -0.0011082642 0.347 3489602
0.013884737 -0.0010961179 0.3432 3621188
0.014553723 -0.0010858874 0.34 3621188
0.015234754 -0.0010775722 0.33739999 3555395
0.015927315 -0.0010708534 0.3353 3489602
0.016639907 -0.00106605 0.33379999 3358016
0.017371535 -0.0010628427 0.3328 3292223
0.018152993 -0.0010628282 0.3328 3292223
0.018877542 -0.0010596191 0.33179998 3160637
0.019626992 -0.0010580062 0.33129999 3094844
0.020343278 -0.0010547956 0.3303 3094844
0.021054845 -0.0010515843 0.32929999 2963258
0.021761691 -0.0010483724 0.3283 2897467
0.022470679 -0.001045479 0.3274 2634295
0.023168318 -0.0010422653 0.32639998 3159608
0.023897899 -0.0010406477 0.32589999 5725535
0.024587259 -0.0010374328 0.3249 6579553
0.025349921 -0.00103741 0.3249 6382174
0.026080403 -0.0010361093 0.32449999 5987411
0.026800705 -0.0010344887 0.324 5855825
0.027561154 -0.0010344634 0.324 6249300
0.028365279 -0.001036034 0.32449999 6446679
0.029162735 -0.0010372841 0.3249 5656393
0.029971236 -0.0010388527 0.32539999 5393221
0.030829277 -0.0010420165 0.32639998 5722186
0.031643573 -0.0010435834 0.32690001 5787979
0.0325494 -0.0010480222 0.3283 5722186
0.033319667 -0.0010479908 0.3283 5656393
0.034141809 -0.0010495547 0.32879999 5392967
0.035072431 -0.0010543098 0.3303 5392967
0.035955779 -0.0010574675 0.33129999 4999233
0.036843777 -0.0010606244 0.33229998 5065026
0.037736412 -0.00106378 0.33329999 4933440
0.038691469 -0.0010685306 0.3348 4670268
0.039594561 -0.0010716843 0.33579999 4408125
0.040574435 -0.0010767516 0.33739999 4737090
0.041623056 -0.0010834133 0.33949998 5921623
0.042419087 -0.0010833725 0.33949998 5329486
0.043609664 -0.0010932229 0.34259999 5000268
0.045411032 -0.0011177493 0.35029998 7105644
-0.016878897 -0.00036120106 0.42859998 5657676
-0.015569191 -0.00035430116 0.42039999 5526090
-0.014284067 -0.00034706321 0.4118 5526090
-0.013317395 -0.00034707252 0.4118 5197898
-0.012350683 -0.00034708131 0.4118 4737347
-0.011135137 -0.00033950384 0.40279999 3423039
-0.0097442623 -0.00032467677 0.38519999 3291453
-0.0087182699 -0.00032021618 0.37989998 2897982
-0.0077315546 -0.00031634496 0.37529999 2897982
-0.0068047447 -0.00031424328 0.37279999 2766656
-0.0058991918 -0.00031264679 0.37090001 2766656
-0.0050201612 -0.00031214565 0.37029999 2700863
-0.0041506514 -0.00031214976 0.37029999 2503484
-0.0032758045 -0.00031164763 0.36969998 2503484
-0.0023991968 -0.0003105549 0.36839998 2503484
-0.0015340911 -0.00031055757 0.36839998 2766142
-0.00066896918 -0.00031055979 0.36839998 2766142
0.00019584794 -0.00031005574 0.3678 2963008
0.0010595887 -0.00031005702 0.3678 2963008
0.0019233411 -0.0003100578 0.3678 2963008
0.0027825567 -0.0003095523 0.36719999 2963008
0.0036449183 -0.00030955212 0.36719999 3029055
0.004499922 -0.00030904572 0.36659998 3094848
0.0053521134 -0.00030853885 0.366 3029566
0.0062116734 -0.0003085373 0.366 3095359
0.0070480518 -0.00030752367 0.36479998 3292738
0.0078527918 -0.00030549802 0.3624 3292738
0.0086318478 -0.00030296616 0.3594 3489604
0.0094759082 -0.00030296278 0.3594 3555397
0.010423337 -0.0003059936 0.36300001 3489604
0.010862706 -0.00029477809 0.3497 3489604
0.011683972 -0.00029477343 0.3497 3555395
0.012387222 -0.00029198674 0.34639999 3621188
0.013078773 -0.00028928398 0.3432 3555395
0.013755285 -0.00028658091 0.34 3818567
0.014442438 -0.00028438319 0.33739999 3621188
0.015139944 -0.00028260663 0.3353 3621188
0.01585607 -0.00028133535 0.33379999 3555395
0.016590066 -0.00028048517 0.3328 3489602
0.017293248 -0.00027921319 0.33129999 3423809
0.018071186 -0.00027920498 0.33129999 3423809
0.018792214 -0.00027835366 0.3303 3292223
0.01950852 -0.00027750194 0.32929999 3160637
0.02022011 -0.00027664989 0.3283 3160637
0.020933377 -0.0002758817 0.3274 3094844
0.021635761 -0.0002750289 0.32639998 3028283
0.022333426 -0.00027417578 0.32539999 3094076
0.02303347 -0.00027340656 0.32449999 5857119
0.02375859 -0.00027297399 0.324 6383463
0.024443492 -0.0002721198 0.32299998 6447965
0.025201693 -0.00027210772 0.32299998 6645344
0.025887534 -0.00027133705 0.32209998 6908259
0.026643557 -0.00027132418 0.32209998 6184536
0.027399547 -0.00027131091 0.32209998 6051921
0.028199214 -0.0002717184 0.32259998 5262405
0.028956307 -0.00027170428 0.32259998 4011055
0.029750207 -0.00027202669 0.32299998 4274227
0.030602615 -0.00027285388 0.324 4932157
0.031411279 -0.00027325959 0.32449999 5721673
0.032261901 -0.00027400162 0.32539999 5787979
0.033025362 -0.00027398535 0.32539999 5853772
0.03389262 -0.00027481062 0.32639998 5787979
0.034764525 -0.00027563539 0.3274 5590600
0.035630219 -0.00027637545 0.3283 5262405
0.036511175 -0.0002771992 0.32929999 5130819
0.037396781 -0.00027802243 0.3303 5130819
0.038287021 -0.00027884517 0.33129999 5065026
0.039240856 -0.00028008813 0.3328 4867906
0.040201668 -0.00028133049 0.33429998 4867906
0.041169465 -0.00028257232 0.33579999 5065804
0.04195682 -0.00028255137 0.33579999 6447457
0.043075081 -0.00028471762 0.33840001 5723991
0.044840671 -0.00029100539 0.3459 6316128
0.04682615 -0.0002984695 0.35479999 7631984
-0.016748941 0.0006412614 0.4253 5723469
-0.015365505 0.00062558416 0.41489998 5723469
-0.014020448 0.00060945452 0.40419999 5591883
-0.013071616 0.00060945819 0.40419999 5263693
-0.011798833 0.00059317733 0.39339998 4934728
-0.010609897 0.0005787058 0.3838 3554625
-0.0095115351 0.00056694803 0.37599999 3423039
-0.0084979627 0.00055835664 0.37029999 2897982
-0.0075399671 0.00055187609 0.366 2897982
-0.0066477694 0.00054916501 0.3642 2766656
-0.0057735429 0.00054735871 0.36300001 2766656
-0.0049130614 0.00054645701 0.3624 2700863
-0.0040621017 0.00054646004 0.3624 2503484
-0.0032004886 0.00054465357 0.3612 2634556
-0.0023484 0.00054375175 0.36059999 2634556
-0.00150161 0.00054375466 0.36059999 2766142
-0.00065480499 0.00054375752 0.36059999 2897728
0.00019201472 0.00054376031 0.36059999 2963521
0.0010388473 0.0005437631 0.36059999 2897728
0.0018856912 0.00054376596 0.36059999 2963008
0.0027279982 0.00054286385 0.35999998 3028801
0.003573451 0.00054286653 0.35999998 3094848
0.0044115456 0.00054196437 0.3594 3094848
0.0052556023 0.00054196699 0.3594 3292227
0.0060894787 0.00054106477 0.35879999 3292227
0.0069321315 0.00054106727 0.35879999 3358018
0.0077249473 0.00053760142 0.3565 3423811
0.0085213706 0.00053504028 0.35479999 3489604
0.0092781661 0.00053066947 0.35189998 3489604
0.010041438 0.00052735413 0.3497 3489604
0.010778841 0.00052328478 0.347 3489604
0.011593766 0.00052328705 0.347 3555397
0.012308552 0.00051906676 0.34419999 3621190
0.013036857 0.00051590201 0.34209999 3555397
0.013735058 0.00051198329 0.33949998 3621190
0.014442441 0.00050881848 0.33739999 3752776
0.015117371 0.00050489954 0.3348 3752776
0.015832325 0.00050263939 0.33329999 3555395
0.016540222 0.00050037925 0.33179998 3555395
0.017267155 0.00049887312 0.3308 3423809
0.018043919 0.00049887493 0.3308 3423809
0.018735323 0.00049661472 0.32929999 3292223
0.019419663 0.0004943544 0.32780001 3160637
0.02013389 0.00049299892 0.32690001 3094846
0.020837476 0.00049149262 0.32589999 3160639
0.021536341 0.00048998627 0.3249 3225662
0.022237346 0.00048863067 0.324 3752006
0.022962496 0.00048787825 0.32349998 6449258
0.023655932 0.00048652262 0.32259998 6383465
0.024307279 0.00048441286 0.32119998 5988186
0.025061255 0.00048441443 0.32119998 5527635
0.025775019 0.00048366198 0.32069999 6250329
0.026486399 0.00048290953 0.3202 6513501
0.027237931 0.00048291107 0.3202 6644058
0.028033139 0.00048366669 0.32069999 5657163
0.028785774 0.00048366821 0.32069999 4734778
0.029621264 0.00048502706 0.32159999 4340020
0.030423166 0.00048578263 0.32209998 4668985
0.031227365 0.00048653822 0.32259998 4866364
0.032073531 0.00048789705 0.32349998 5129282
0.032832537 0.00048789851 0.32349998 5918798
0.033695344 0.00048940821 0.32449999 5984845
0.034552164 0.00049076701 0.32539999 5919052
0.03542402 0.00049227662 0.32639998 5722186
0.036245089 0.00049303222 0.32690001 5590600
0.037113737 0.00049439102 0.32780001 5459530
0.037998114 0.00049590069 0.32879999 5459530
0.038887128 0.00049741031 0.32979998 5196871
0.039840911 0.00049967406 0.33129999 5065285
0.040801674 0.00050193787 0.3328 5065287
0.041582 0.00050193933 0.3328 5723217
0.042616844 0.00050495728 0.3348 7236203
0.044348072 0.00051596889 0.34209999 6841445
0.046232253 0.00052833796 0.35029998 7433582
-0.01649295 0.0016158634 0.4188 5723215
-0.015365494 0.0016008342 0.41489998 5854801
-0.014020439 0.0015595668 0.40419999 5723215
-0.013071607 0.0015595835 0.40419999 5395279
-0.011798824 0.0015179277 0.39339998 4474177
-0.010338973 0.0014430874 0.37399998 3291453
-0.0092585608 0.0014122326 0.366 3225660
-0.0083028898 0.0013960394 0.36179999 2963521
-0.007403993 0.0013867909 0.3594 2897728
-0.0065181646 0.0013779275 0.35709998 2766656
-0.0056796954 0.0013779385 0.35709998 2700863
-0.0048330687 0.0013756338 0.3565 2700863
-0.0039959629 0.0013756437 0.3565 2635070
-0.0031535206 0.0013733378 0.35589999 2766142
-0.0023177853 0.0013733468 0.35589999 2766142
-0.0014845316 0.0013756703 0.3565 2831935
-0.00064735475 0.0013756781 0.3565 2963521
0.00018951693 0.0013733699 0.35589999 2897728
0.0010253118 0.0013733767 0.35589999 2897728
0.0018611177 0.0013733829 0.35589999 3029568
0.0026923865 0.0013710732 0.35529998 3029568
0.0035268015 0.0013710784 0.35529998 3094848
0.0043612225 0.0013710831 0.35529998 3094848
0.0051956498 0.001371087 0.35529998 3160641
0.006011412 0.0013668459 0.35420001 3358020
0.0068316683 0.0013645336 0.3536 3358018
0.0076382747 0.0013602911 0.35249999 3423811
0.0084253019 0.0013537328 0.35079998 3423811
0.009191162 0.0013452447 0.3486 3489604
0.009963912 0.0013390712 0.347 3555397
0.010726034 0.0013325114 0.34529999 3489604
0.011536966 0.0013325111 0.34529999 3555397
0.012290673 0.0013263362 0.34369999 3621190
0.013017804 0.0013182312 0.3416 3621190
0.01373506 0.0013101258 0.33949998 3621190
0.014442442 0.0013020199 0.33739999 3752776
0.015117371 0.001291984 0.3348 3752776
0.015832325 0.0012861927 0.33329999 3686211
0.01654022 0.0012804007 0.33179998 3620418
0.017241053 0.0012746085 0.3303 3686211
0.018016644 0.001274604 0.3303 3554625
0.018706875 0.0012688108 0.32879999 3423041
0.019366343 0.0012614737 0.32690001 3423041
0.020072296 0.001257609 0.32589999 3160639
0.02074796 0.0012522003 0.32449999 3292225
0.021443537 0.0012483349 0.32349998 3291455
0.022168707 0.0012463984 0.32299998 3225662
0.022827627 0.0012409886 0.32159999 4672595
0.023553267 0.0012394373 0.32119998 6185834
0.024201332 0.0012340267 0.31979999 6251107
0.024952019 0.0012340179 0.31979999 5658970
0.025622314 0.0012301501 0.3188 5461072
0.026370594 0.0012301407 0.3188 5395279
0.027118836 0.0012301306 0.3188 6052180
0.027867051 0.00123012 0.3188 6512731
0.028660107 0.0012320385 0.3193 6643034
0.029409416 0.0012320271 0.3193 6116690
0.0302437 0.001235488 0.3202 5130049
0.031043444 0.0012374049 0.32069999 4669498
0.031885151 0.0012408647 0.32159999 4669244
0.032639701 0.0012408516 0.32159999 5064002
0.033695336 0.0012520272 0.32449999 5524294
0.034552164 0.0012554856 0.32539999 5853259
0.035424016 0.001259329 0.32639998 5524294
0.036245082 0.0012612434 0.32690001 5392708
0.03711373 0.0012647001 0.32780001 5327428
0.037998106 0.0012685423 0.32879999 5722186
0.038887125 0.0012723838 0.32979998 5723215
0.039840907 0.001278154 0.33129999 5460043
0.040801667 0.0012839235 0.3328 5394252
0.041581988 0.0012839058 0.3328 5460045
0.042616837 0.0012916032 0.3348 7893620
0.044348065 0.001319746 0.34209999 7630448
0.046232242 0.0013513598 0.35029998 7498862
-0.016185747 0.0025518353 0.41099998 5854801
-0.015221037 0.0025518674 0.41099998 5920594
-0.013361366 0.0023917065 0.38519999 5723215
-0.012457136 0.0023917346 0.38519999 5526612
-0.011237955 0.0023265656 0.37469998 4210752
-0.0101178 0.0022725705 0.366 3488321
-0.0090915859 0.0022316128 0.3594 3290942
-0.0081812441 0.002213628 0.3565 2963008
-0.0072844909 0.0021956414 0.3536 2963008
-0.0064542647 0.0021956614 0.3536 2897728
-0.0056065177 0.0021888497 0.35249999 2831935
-0.0047706924 0.0021851414 0.35189998 2831935
-0.0039443891 0.002185158 0.35189998 2766142
-0.0031136351 0.002182069 0.35139999 2766142
-0.0022884679 0.0021820837 0.35139999 2766142
-0.0014632836 0.0021820969 0.35139999 2832189
-0.00063808408 0.00218211 0.35139999 2832189
0.00018739593 0.0021852262 0.35189998 2766396
0.0010137963 0.0021852369 0.35189998 2897982
0.001840208 0.0021852464 0.35189998 3029568
0.0026628398 0.0021821503 0.35139999 3029568
0.0034880948 0.0021821577 0.35139999 3095361
0.0043133562 0.0021821642 0.35139999 3095361
0.0051386231 0.0021821698 0.35139999 3226947
0.0060114153 0.0021995623 0.35420001 3292740
0.0068316711 0.0021958398 0.3536 3358533
0.0076382766 0.0021890113 0.35249999 3358533
0.0084253028 0.0021784559 0.35079998 3358531
0.009191162 0.0021647946 0.3486 3358531
0.009963912 0.0021548583 0.347 3621190
0.010726032 0.0021442999 0.34529999 3752776
0.011536964 0.0021442976 0.34529999 3752776
0.012290672 0.0021343583 0.34369999 3752776
0.013017801 0.0021213132 0.3416 3752776
0.013735056 0.0021082668 0.33949998 3621190
0.014442437 0.0020952199 0.33739999 3883590
0.015117368 0.0020790675 0.3348 3883590
0.01583232 0.0020697445 0.33329999 3686211
0.016540214 0.0020604208 0.33179998 3752004
0.017241046 0.0020510964 0.3303 3620418
0.018016636 0.0020510857 0.3303 3554625
0.018706867 0.0020417594 0.32879999 3358018
0.019366333 0.0020299486 0.32690001 3358018
0.020072289 0.0020237258 0.32589999 3160639
0.02074795 0.0020150184 0.32449999 3160639
0.021443525 0.0020087936 0.32349998 3094846
0.022168698 0.0020056732 0.32299998 3029053
0.022827612 0.0019969633 0.32159999 3028285
0.023553258 0.001994462 0.32119998 3094078
0.024201315 0.0019857506 0.31979999 3817284
0.024952006 0.0019857315 0.31979999 5264730
0.025622299 0.0019795024 0.3188 5987935
0.026370574 0.0019794814 0.3188 6185314
0.027118823 0.00197946 0.3188 6118749
0.027867034 0.0019794374 0.3188 5921370
0.028660089 0.0019825185 0.3193 5855573
0.029409397 0.0019824945 0.3193 6250331
0.03024368 0.0019880573 0.3202 6710882
0.031043427 0.0019911358 0.32069999 6250331
0.031885132 0.0019966967 0.32159999 5000262
0.032639679 0.001996669 0.32159999 4473918
0.033498019 0.0020028488 0.32259998 5196358
0.034403484 0.002011511 0.324 5525323
0.035217788 0.0020145846 0.32449999 5787979
0.036078747 0.0020201406 0.32539999 5722186
0.036898587 0.0020232124 0.32589999 5130049
0.037720725 0.0020262832 0.32639998 4603705
0.038651276 0.0020349405 0.32780001 5591116
0.039540235 0.0020411131 0.32879999 5722702
0.040433835 0.002047285 0.32979998 5657171
0.04120712 0.002047248 0.32979998 5525585
0.042171292 0.0020565216 0.33129999 7301483
0.043803565 0.0020974509 0.33789998 8880515
0.045651503 0.0021470685 0.3459 7565168
-0.016185708 0.0035178985 0.41099998 5723469
-0.015220997 0.0035179444 0.41099998 5855055
-0.013361329 0.0032971522 0.38519999 5657676
-0.012457102 0.0032971927 0.38519999 5460819
-0.011237923 0.0032073534 0.37469998 3750201
-0.01011777 0.0031329186 0.366 3356735
-0.0090915598 0.003076457 0.3594 3290942
-0.0081812171 0.0030516635 0.3565 3159871
-0.0072844671 0.0030268689 0.3536 2962492
-0.006454241 0.0030268973 0.3536 2963008
-0.0056064953 0.0030175073 0.35249999 2831422
-0.0047706715 0.0030123962 0.35189998 2766142
-0.003944369 0.0030124199 0.35189998 2634556
-0.0031136174 0.0030081612 0.35139999 2766142
-0.0022884512 0.0030081822 0.35139999 2766142
-0.0014632681 0.0030082008 0.35139999 2897982
-0.00063806958 0.0030082185 0.35139999 2832189
0.00018740914 0.0030125149 0.35189998 2766396
0.0010138082 0.0030125293 0.35189998 2963775
0.0018402186 0.0030125424 0.35189998 3095361
0.0026628494 0.0030082734 0.35139999 2963775
0.0034881029 0.0030082834 0.35139999 3095361
0.0043133637 0.0030082918 0.35139999 3095361
0.0051298547 0.0030031623 0.35079998 3292740
0.0059452294 0.0029988876 0.35029998 3358533
0.0067679179 0.0029988918 0.35029998 3292740
0.0075537702 0.002984341 0.3486 3358533
0.0083580557 0.0029792052 0.34799999 3358531
0.0091489749 0.0029706443 0.347 3358531
0.0099150939 0.0029560889 0.34529999 3555910
0.010710498 0.002951805 0.3448 3687496
0.011520253 0.0029518004 0.3448 3949385
0.012272786 0.0029380969 0.3432 3883592
0.013017795 0.0029243915 0.3416 3948870
0.013735048 0.0029064047 0.33949998 3948870
0.014442427 0.0028884169 0.33739999 4014663
0.015117357 0.0028661476 0.3348 3948870
0.015832309 0.0028532934 0.33329999 3948870
0.016515277 0.0028361578 0.33129999 3948870
0.017214933 0.0028233009 0.32979998 3752004
0.017989349 0.0028232841 0.32979998 3686211
0.018649958 0.002806145 0.32780001 3423811
0.019336695 0.0027941405 0.32639998 3423811
0.020010682 0.0027812796 0.3249 3160639
0.020683989 0.0027692728 0.32349998 3292225
0.021383846 0.0027615451 0.32259998 3292225
0.022072589 0.0027529607 0.32159999 3160639
0.02276371 0.0027452307 0.32069999 3029055
0.023450574 0.0027374995 0.31979999 2963262
0.024125619 0.002728912 0.3188 2963262
0.024873959 0.0027288822 0.3188 2963262
0.025590122 0.002725428 0.3184 3094076
0.026296105 0.0027211162 0.3179 3423041
0.027042234 0.0027210829 0.3179 4080710
0.027788334 0.0027210487 0.3179 4936019
0.028534396 0.0027210133 0.3179 5658970
0.029363317 0.0027286795 0.3188 6053728
0.030158641 0.0027329209 0.3193 6447716
0.030956272 0.0027371608 0.31979999 6710888
0.031746298 0.0027405433 0.3202 6710886
0.032497555 0.0027405014 0.3202 6381921
0.033394147 0.0027524403 0.32159999 5921623
0.034201697 0.0027566741 0.32209998 5461072
0.035054956 0.0027643305 0.32299998 5723215
0.035868041 0.0027685624 0.32349998 5723215
0.036740039 0.0027770712 0.32449999 5920335
0.037547331 0.0027804445 0.3249 5262405
0.0384272 0.0027889505 0.32589999 4341049
0.039311707 0.0027974551 0.32690001 5327944
0.040188588 0.0028051026 0.32780001 6380381
0.040957183 0.0028050472 0.32780001 6051416
0.041853014 0.0028135472 0.32879999 6248795
0.043336831 0.0028605512 0.33429998 9604238
0.044872779 0.0029092645 0.34 9670284
0.04697267 0.0029921993 0.3497 7762287
-0.016185652 0.0044839559 0.41099998 5855055
-0.014391387 0.0042396327 0.38859999 5592399
-0.013361284 0.0042025936 0.38519999 5526606
-0.012457057 0.0042026457 0.38519999 5066833
-0.011237881 0.0040881364 0.37469998 3422008
-0.0099518662 0.0039277989 0.35999998 3291457
-0.0089599798 0.0038645605 0.35420001 3159871
-0.0080756182 0.0038395054 0.35189998 2963262
-0.0072164508 0.0038220861 0.35029998 2897469
-0.0063830237 0.003815576 0.3497 2897215
-0.0055539804 0.0038101545 0.34919998 2831422
-0.0047259065 0.0038036399 0.3486 2831422
-0.0039073545 0.0038036697 0.3486 2699836
-0.0030887837 0.0038036976 0.3486 2766142
-0.0022701942 0.0038037242 0.3486 2766142
-0.0014515878 0.0038037482 0.3486 2831935
-0.00063296646 0.0038037708 0.3486 2831935
0.00018598848 0.0038103373 0.34919998 2831935
0.0010060453 0.0038103557 0.34919998 2963521
0.0018261131 0.0038103724 0.34919998 3029568
0.0026461901 0.0038103866 0.34919998 3029568
0.0034662758 0.0038103994 0.34919998 3095361
0.004279003 0.0038038625 0.3486 3226947
0.0050889165 0.0037973241 0.34799999 3292740
0.0058892276 0.0037864188 0.347 3292740
0.0067041642 0.0037864235 0.347 3292740
0.0075191013 0.0037864256 0.347 3358533
0.00830762 0.0037744234 0.3459 3555399
0.0091041513 0.003767875 0.34529999 3489606
0.0098835044 0.0037558689 0.34419999 3555397
0.010676324 0.0037504074 0.34369999 3621190
0.011483496 0.0037504006 0.34369999 3752006
0.012251322 0.0037383889 0.34259999 3883592
0.013017786 0.0037274668 0.3416 4014663
0.013735035 0.0037045386 0.33949998 4014663
0.014442414 0.0036816099 0.33739999 3948870
0.01513992 0.0036586793 0.3353 3948870
0.015832294 0.0036368384 0.33329999 3948870
0.016515259 0.0036149949 0.33129999 3948870
0.017214915 0.0035986064 0.32979998 3686213
0.017989328 0.0035985834 0.32979998 3686213
0.018649936 0.003576736 0.32780001 3423811
0.019307051 0.0035559779 0.32589999 3423811
0.019986019 0.0035406738 0.32449999 3358020
0.020651996 0.0035242776 0.32299998 3358020
0.021317536 0.0035089708 0.32159999 3292227
0.022010788 0.0034991174 0.32069999 3160641
0.022699796 0.0034892631 0.31979999 3029055
0.023377212 0.0034783164 0.3188 3029055
0.024057474 0.0034684592 0.3179 2963262
0.024803702 0.0034684194 0.3179 2897469
0.025517752 0.0034640143 0.3175 2897467
0.026221616 0.003458516 0.317 2502709
0.026965639 0.0034584717 0.317 2436914
0.027753329 0.0034638802 0.3175 2436914
0.02849845 0.0034638327 0.3175 2370605
0.029280374 0.0034681465 0.3179 2370605
0.030026363 0.0034680951 0.3179 2699057
0.030820707 0.0034734968 0.3184 3093815
0.031657014 0.0034832605 0.3193 3751745
0.032406162 0.0034832039 0.3193 4475468
0.033248726 0.0034929635 0.3202 5132626
0.034052987 0.0034983575 0.32069999 5856349
0.03490296 0.0035081133 0.32159999 6052952
0.035712764 0.0035135038 0.32209998 5789780
0.036570147 0.0035232552 0.32299998 5920594
0.037385475 0.0035286422 0.32349998 5854801
0.038262066 0.0035394812 0.32449999 5721932
0.039071131 0.0035437737 0.3249 4932416
0.039894283 0.0035491546 0.32539999 5590865
0.040657248 0.0035490803 0.32539999 6183002
0.041547451 0.0035599114 0.32639998 5788497
0.042947862 0.0036132752 0.33129999 8946561
0.044397581 0.0036688156 0.3364 10327442
0.045669664 0.003707994 0.34 8024687
-0.015492479 0.0052166255 0.39339998 5855055
-0.014391323 0.0051530465 0.38859999 5592399
-0.012799302 0.0048932042 0.36899999 5526606
-0.011933105 0.0048932666 0.36899999 4146503
-0.011066876 0.0048933262 0.36899999 3159608
-0.0098080691 0.0047050742 0.35479999 3160639
-0.0088739265 0.0046520811 0.35079998 3094846
-0.0079998448 0.0046229553 0.3486 2963262
-0.0071587279 0.0046084137 0.3475 2897469
-0.0063428283 0.0046084579 0.3475 2897215
-0.005501458 0.0045872806 0.3459 2897215
-0.0046892692 0.0045873201 0.3459 2831422
-0.0038770593 0.0045873565 0.3459 2699836
-0.0030648301 0.00458739 0.3459 2766142
-0.0022525829 0.0045874217 0.3459 2766142
-0.0014424013 0.004594082 0.34639999 2831935
-0.0006300378 0.0046020667 0.347 2897728
0.00018483801 0.0046020919 0.347 2963775
0.00099972612 0.0046021133 0.347 3095361
0.0018146251 0.0046021333 0.347 3029568
0.0026295336 0.0046021501 0.347 3029568
0.0034384944 0.0045942073 0.34639999 3029568
0.0042520082 0.0045942194 0.34639999 3226947
0.0050494419 0.0045796409 0.34529999 3226945
0.0058603813 0.0045796484 0.34529999 3292738
0.0066616628 0.0045730215 0.3448 3292738
0.0074714315 0.0045730243 0.3448 3358531
0.0082667898 0.0045650671 0.34419999 3489604
0.0090619633 0.0045584333 0.34369999 3621190
0.0098547852 0.0045517976 0.3432 3555397
0.010660786 0.0045517911 0.3432 3752776
0.011466781 0.0045517809 0.3432 3752006
0.01223343 0.0045371805 0.34209999 3752006
0.012994906 0.0045225779 0.34099999 3948870
0.013735021 0.0045026671 0.33949998 4014663
0.014442398 0.0044747978 0.33739999 3817284
0.015139898 0.0044469251 0.3353 3948870
0.015832271 0.0044203773 0.33329999 3948870
0.016515234 0.0043938272 0.33129999 3817284
0.017214889 0.0043739066 0.32979998 3620420
0.0179893 0.0043738768 0.32979998 3620420
0.018649906 0.0043473216 0.32780001 3358018
0.019307019 0.0043220897 0.32589999 3423811
0.019985985 0.0043034879 0.32449999 3358018
0.020651961 0.0042835567 0.32299998 3358018
0.021317497 0.0042649512 0.32159999 3358018
0.022010749 0.0042529735 0.32069999 3160639
0.022699755 0.0042409948 0.31979999 2963260
0.023377173 0.0042276876 0.3188 2963260
0.024057431 0.0042157052 0.3179 2963262
0.024803655 0.0042156549 0.3179 2963262
0.025477519 0.0042036683 0.317 2897467
0.026147125 0.0041916803 0.3161 2568502
0.026889028 0.0041916245 0.3161 2568500
0.027665863 0.0041968701 0.31649998 2568500
0.028408634 0.0041968101 0.31649998 2502707
0.029197423 0.0042033778 0.317 2436914
0.029941298 0.0042033135 0.317 2567730
0.030772246 0.0042151809 0.3179 2567730
0.031567723 0.0042217416 0.3184 2107951
0.032406099 0.0042336038 0.3193 2107951
0.033155203 0.0042335307 0.3193 2304562
0.033999827 0.0042453888 0.3202 3028285
0.034805212 0.0042519397 0.32069999 4737870
0.035557464 0.0042518605 0.32069999 5856351
0.036411565 0.0042637112 0.32159999 6315354
0.03728139 0.0042768843 0.32259998 6052182
0.038144074 0.0042887302 0.32349998 6051667
0.038962822 0.0042952704 0.324 5591116
0.039783858 0.0043018083 0.32449999 4998981
0.040544715 0.0043017161 0.32449999 5788497
0.041356433 0.0043069241 0.3249 6182485
0.042623684 0.004358524 0.32879999 8024689
0.043988362 0.0044180746 0.33329999 10392722
0.045186013 0.0044590621 0.3364 8484725
0.046603136 0.0045199287 0.34099999 7564908
-0.015141912 0.0060023628 0.3845 5986641
-0.014239409 0.0060024466 0.3845 5789778
-0.012799232 0.0057605519 0.36899999 5723985
-0.011933038 0.0057606259 0.36899999 3356987
-0.010640934 0.0055390112 0.35479999 3356987
-0.0096836127 0.0054688235 0.35029998 3029053
-0.008777746 0.0054173656 0.347 2963260
-0.0079378318 0.0054002502 0.3459 3029055
-0.0070906961 0.0053737634 0.34419999 2897469
-0.006282548 0.0053738146 0.34419999 2897215
-0.0054664235 0.0053660576 0.34369999 2831422
-0.0046594026 0.0053661033 0.34369999 2963008
-0.0038523616 0.0053661466 0.34369999 2897215
-0.0030453014 0.0053661866 0.34369999 2897728
-0.0022382229 0.0053662239 0.34369999 2831935
-0.0014311282 0.0053662583 0.34369999 2897728
-0.00062492606 0.0053740963 0.34419999 2897728
0.00018369134 0.0053834934 0.3448 3029568
0.00099341047 0.0053835195 0.3448 3095361
0.001805755 0.0053913486 0.34529999 3095361
0.0026166684 0.0053913686 0.34529999 3095361
0.003422627 0.0053835791 0.3448 3095359
0.0042323805 0.0053835935 0.3448 3226945
0.0050333655 0.0053742365 0.34419999 3226945
0.0058332332 0.0053664381 0.34369999 3358531
0.0066404142 0.0053664437 0.34369999 3292738
0.0074475976 0.0053664465 0.34369999 3424324
0.008242771 0.0053586396 0.3432 3555397
0.0090329573 0.0053492682 0.34259999 3621190
0.0098375492 0.0053492622 0.34259999 3752776
0.010626609 0.005341447 0.34209999 3752776
0.011430017 0.0053414358 0.34209999 3686213
0.012233416 0.0053414204 0.34209999 3883592
0.012994889 0.0053242287 0.34099999 3949383
0.013735001 0.0053007882 0.33949998 3949383
0.014442377 0.0052679772 0.33739999 4014663
0.015139874 0.005235164 0.3353 3948870
0.015832243 0.0052039097 0.33329999 3949124
0.016540132 0.0051804595 0.33179998 3817538
0.017214857 0.0051491996 0.32979998 3686211
0.017989269 0.0051491638 0.32979998 3686211
0.018649871 0.0051179002 0.32780001 3488832
0.01930698 0.0050881947 0.32589999 3488832
0.019985946 0.0050662947 0.32449999 3554625
0.020651918 0.0050428296 0.32299998 3423039
0.021350596 0.0050287303 0.32209998 3488834
0.022010705 0.0050068232 0.32069999 3291455
0.022664215 0.0049849134 0.3193 3094076
0.02337712 0.0049770526 0.3188 3094076
0.024027107 0.0049566994 0.3175 3094076
0.024772387 0.0049566394 0.3175 2962490
0.025437273 0.0049409652 0.31649998 2830902
0.026147064 0.0049346564 0.3161 2699316
0.026888961 0.0049345889 0.3161 2634293
0.027630834 0.0049345191 0.3161 2634293
0.028408566 0.0049406905 0.31649998 2568500
0.0291513 0.0049406155 0.31649998 2436914
0.029893998 0.0049405387 0.31649998 2436914
0.030685054 0.0049482635 0.317 2239535
0.031478416 0.004955986 0.3175 2239537
0.032355271 0.004976193 0.3188 2502709
0.033103205 0.0049761054 0.3188 2305845
0.033904172 0.0049838186 0.3193 2108466
0.034707453 0.00499153 0.31979999 2107183
0.035501938 0.0049976776 0.3202 2633527
0.036309578 0.0050053834 0.32069999 5000272
0.037165739 0.00501933 0.32159999 5921374
0.038037855 0.0050348337 0.32259998 6183768
0.038842466 0.0050409702 0.32299998 6117975
0.039722458 0.0050564683 0.324 5985874
0.040482137 0.005056357 0.324 5788495
0.041305408 0.005064046 0.32449999 6642523
0.042493947 0.0051154275 0.32780001 7826797
0.043790281 0.0051777274 0.33179998 10458001
0.045038141 0.00523222 0.3353 10063243
0.046466351 0.0053054327 0.34 7695724
-0.016357234 0.0070407153 0.39199999 5987411
-0.014933101 0.0068109129 0.37919998 5855825
-0.013620865 0.0066062473 0.3678 5723987
-0.012757527 0.0066063358 0.3678 5855573
-0.010571883 0.0063316813 0.35249999 3356733
-0.0096199652 0.0062509249 0.34799999 3029055
-0.0087346788 0.0062024971 0.34529999 3029055
-0.0078872852 0.0061738226 0.34369999 2963262
-0.007057678 0.0061541265 0.34259999 3029055
-0.0062441635 0.0061452044 0.34209999 2897215
-0.0054329732 0.0061362796 0.3416 2897215
-0.0046308865 0.0061363317 0.3416 2897215
-0.0038287793 0.0061363811 0.3416 2831422
-0.0030266528 0.0061364272 0.3416 2897728
-0.0022245091 0.0061364705 0.3416 2831935
-0.0014223488 0.0061365096 0.3416 2897728
-0.0006210811 0.0061455276 0.34209999 2963521
0.00018286814 0.006165321 0.3432 3095107
0.00099026726 0.0061743325 0.34369999 3095107
0.0017974107 0.0061743585 0.34369999 3095361
0.0026045635 0.0061743814 0.34369999 3095361
0.0034166877 0.0061833835 0.34419999 3226947
0.0042250291 0.0061833994 0.34419999 3292740
0.005018753 0.0061654481 0.3432 3292738
0.005824754 0.006165457 0.3432 3358531
0.0066307597 0.0061654635 0.3432 3292738
0.0074237627 0.0061546876 0.34259999 3358531
0.0082283588 0.0061546862 0.34259999 3555397
0.0090197697 0.0061457008 0.34209999 3621190
0.0098231854 0.0061456934 0.34209999 3883592
0.010626597 0.0061456831 0.34209999 3752006
0.011430003 0.0061456691 0.34209999 3883592
0.012233399 0.0061456519 0.34209999 3883592
0.012994868 0.0061258706 0.34099999 4015176
0.013734977 0.0060989005 0.33949998 3949383
0.014442349 0.0060611484 0.33739999 4014917
0.015139845 0.0060233935 0.3353 3949124
0.015855962 0.0059964154 0.33379999 3949124
0.016540095 0.00596045 0.33179998 4014917
0.017240921 0.0059334664 0.3303 3752258
0.017934682 0.005906478 0.32879999 3686465
0.018706718 0.0059064333 0.32879999 3620418
0.019336557 0.0058632735 0.32639998 3554625
0.020010533 0.0058362777 0.3249 3488832
0.020651869 0.0058020945 0.32299998 3488832
0.021350542 0.0057858704 0.32209998 3423039
0.022010649 0.0057606641 0.32069999 3291453
0.022664154 0.0057354537 0.3193 3159867
0.023377057 0.0057264077 0.3188 3094074
0.024027046 0.0057029901 0.3175 3094076
0.024772324 0.0057029193 0.3175 3028283
0.025437206 0.0056848847 0.31649998 2830904
0.026146993 0.0056776241 0.3161 2765111
0.026888888 0.0056775454 0.3161 2699316
0.027630756 0.0056774635 0.3161 2699316
0.028372588 0.0056773787 0.3161 2502707
0.029114379 0.0056772917 0.3161 2436914
0.029893911 0.0056843846 0.31649998 2436916
0.030684965 0.0056932718 0.317 2371123
0.031478323 0.0057021552 0.3175 2371123
0.032314584 0.0057182191 0.3184 2371123
0.033061571 0.0057181166 0.3184 2042673
0.033850987 0.0057251947 0.3188 2042673
0.034653082 0.0057340651 0.3193 2371384
0.035457484 0.0057429327 0.31979999 2371384
0.03625286 0.0057500014 0.3202 2698807
0.037165627 0.0057750242 0.32159999 3225151
0.037978791 0.0057838815 0.32209998 6184544
0.038842347 0.0057999189 0.32299998 6645095
0.039661035 0.0058087697 0.32349998 6052952
0.040419541 0.0058086403 0.32349998 6052952
0.041305289 0.005826463 0.32449999 6313558
0.04244196 0.0058783954 0.3274 7826797
0.043724161 0.0059482777 0.33129999 10720405
0.045038003 0.0060199499 0.3353 10786198
0.046397876 0.0060952045 0.33949998 8879485
-0.016357122 0.0079620639 0.39199999 6118227
-0.014728219 0.0075965705 0.37399998 6052434
-0.013509666 0.0074098064 0.36479998 5855577
-0.012386297 0.0072535034 0.35709998 5197647
-0.011548043 0.007253597 0.35709998 3488321
-0.010520816 0.0071257171 0.35079998 3356735
-0.0095922435 0.0070486125 0.347 3094848
-0.0087067792 0.0069918153 0.34419999 3094848
-0.0078619737 0.0069593894 0.34259999 2897215
-0.0070370138 0.0069391476 0.3416 2897215
-0.0062240241 0.0069270255 0.34099999 2963008
-0.0054233726 0.0069270893 0.34099999 2897215
-0.0046159201 0.0069169933 0.3405 2963008
-0.0038163993 0.0069170478 0.3405 2831422
-0.00301686 0.0069171009 0.3405 3028801
-0.0022173023 0.0069171479 0.3405 3028801
-0.0014177284 0.0069171931 0.3405 3028801
-0.00061904738 0.006927391 0.34099999 3094594
0.00018231524 0.0069497749 0.34209999 3029314
0.00098712766 0.0069599655 0.34259999 3029314
0.0017916844 0.0069599957 0.34259999 3226693
0.0025962503 0.0069600204 0.34259999 3226693
0.003400824 0.0069600423 0.34259999 3226947
0.0042054048 0.0069600609 0.34259999 3292740
0.0050026788 0.0069499169 0.34209999 3292740
0.005806094 0.0069499286 0.34209999 3358533
0.0066095116 0.0069499342 0.34209999 3292738
0.0074129291 0.0069499374 0.34209999 3358531
0.0082043381 0.0069397786 0.3416 3555397
0.0090065803 0.0069397734 0.3416 3555397
0.0098088188 0.0069397651 0.3416 3883592
0.010592413 0.0069275638 0.34099999 3752006
0.011393233 0.0069275466 0.34099999 3883592
0.012194043 0.006927528 0.34099999 3883592
0.012975792 0.0069173472 0.3405 4080456
0.013710678 0.0068848142 0.3389 4080456
0.014420917 0.0068441536 0.3369 4014663
0.015094658 0.0067913001 0.33429998 4014663
0.015808426 0.0067607909 0.3328 4014917
0.016515132 0.0067302771 0.33129999 3949124
0.017214777 0.0066997595 0.32979998 3883844
0.017907362 0.0066692405 0.3283 3752258
0.018678224 0.0066691893 0.3283 3686211
0.019336503 0.0066305362 0.32639998 3686211
0.020010477 0.0066000079 0.3249 3488832
0.020683775 0.0065715066 0.32349998 3554625
0.021383621 0.0065531591 0.32259998 3488832
0.022044901 0.0065246532 0.32119998 3554625
0.022727974 0.0065042693 0.3202 3225660
0.023376986 0.0064757564 0.3188 3159867
0.024057237 0.0064573972 0.3179 3159871
0.024803456 0.0064573176 0.3179 3028285
0.025437124 0.0064287954 0.31649998 2962492
0.026179994 0.0064287088 0.31649998 2830906
0.026888805 0.0064204936 0.3161 2568502
0.027630666 0.0064204005 0.3161 2568502
0.028372493 0.0064203041 0.3161 2634295
0.029114282 0.0064202035 0.3161 2502709
0.029893814 0.006428224 0.31649998 2371636
0.030684866 0.0064382721 0.317 2305843
0.031478219 0.0064483173 0.3175 2108466
0.032314476 0.0064664814 0.3184 2174259
0.03306146 0.006466364 0.3184 1845554
0.033850867 0.0064743659 0.3188 1911347
0.034652963 0.0064843968 0.3193 2240312
0.035401925 0.0064842687 0.3193 2240312
0.036252733 0.0065024155 0.3202 2437177
0.037165496 0.006530711 0.32159999 2305591
0.03797866 0.0065407255 0.32209998 2435633
0.038842212 0.0065588602 0.32299998 5659490
0.039660897 0.0065688672 0.32349998 6710888
0.040419403 0.0065687192 0.32349998 6645095
0.04130514 0.0065888721 0.32449999 6708576
0.042376999 0.006637447 0.32690001 6840162
0.043724 0.0067266226 0.33129999 10391440
0.045037843 0.0068076714 0.3353 11049370
0.046397716 0.0068927724 0.33949998 10589589
-0.015793677 0.0085774651 0.37849998 6184020
-0.014728105 0.0084756128 0.37399998 6118227
-0.013420681 0.0082128495 0.3624 5921370
-0.012344572 0.0080656521 0.35589999 4473924
-0.011509141 0.0080657583 0.35589999 3423041
-0.010520725 0.0079502752 0.35079998 3291455
-0.0095921578 0.0078642499 0.347 2963521
-0.0087066982 0.0078008804 0.34419999 2897728
-0.0078618955 0.0077647017 0.34259999 2963008
-0.0070245797 0.0077285203 0.34099999 2963008
-0.0062148287 0.0077172634 0.3405 2963008
-0.0054074037 0.0077060023 0.34 2963008
-0.0046023023 0.0076947361 0.33949998 2963521
-0.0038051337 0.0076947981 0.33949998 2831935
-0.0030079465 0.0076948553 0.33949998 3029314
-0.0022107412 0.0076949098 0.33949998 3029314
-0.0014135197 0.0076949587 0.33949998 2963521
-0.00061719102 0.0077063376 0.34 3029314
0.00018176613 0.0077290442 0.34099999 3029314
0.00098427956 0.0077426806 0.3416 3029314
0.0017890985 0.007754046 0.34209999 3226693
0.0025886972 0.0077427425 0.3416 3226693
0.003390919 0.0077427668 0.3416 3226693
0.0041931467 0.0077427863 0.3416 3226693
0.0049866061 0.007729202 0.34099999 3358020
0.0057789488 0.0077178809 0.3405 3423813
0.0065786033 0.0077178879 0.3405 3489604
0.0073674256 0.0077065574 0.34 3489604
0.0081538986 0.0076952223 0.33949998 3555397
0.0089512048 0.0076952172 0.33949998 3555397
0.0097628646 0.0077065406 0.34 3818569
0.010545804 0.0076951925 0.33949998 3818569
0.011343095 0.0076951752 0.33949998 3752006
0.012140379 0.007695152 0.33949998 3949385
0.012895737 0.0076701939 0.33840001 3949385
0.013649962 0.0076474966 0.33739999 3949385
0.014352395 0.0075998637 0.3353 4014663
0.015072042 0.0075658257 0.33379999 4014663
0.015784631 0.0075317849 0.33229998 4080456
0.016490161 0.0074977395 0.3308 4080456
0.017188627 0.0074636913 0.32929999 4015176
0.017880036 0.0074296393 0.32780001 3949383
0.018649722 0.0074295816 0.32780001 3686211
0.019306824 0.0073864567 0.32589999 3686211
0.020010415 0.0073637269 0.3249 3620420
0.02068371 0.0073319264 0.32349998 3620420
0.021383552 0.0073114564 0.32259998 3620420
0.022044826 0.0072796498 0.32119998 3620420
0.022727897 0.0072569065 0.3202 3225662
0.023413572 0.0072364253 0.3193 3225662
0.024057155 0.0072046095 0.3179 3029053
0.024803368 0.0072045182 0.3179 2897467
0.025517406 0.0071953586 0.3175 2831676
0.026179899 0.0071725976 0.31649998 2700090
0.026888706 0.007163432 0.3161 2634297
0.027630566 0.0071633267 0.3161 2502711
0.028372388 0.0071632178 0.3161 2569017
0.029151013 0.0071721682 0.31649998 2371638
0.029940931 0.0071833823 0.317 2174773
0.030684747 0.0071832617 0.317 2174773
0.0314781 0.0071944674 0.3175 2042933
0.032314353 0.0072147325 0.3184 2042933
0.033061333 0.0072146007 0.3184 2042933
0.033850741 0.0072235279 0.3188 2042933
0.034652833 0.0072347163 0.3193 2174519
0.035401788 0.0072345738 0.3193 2174519
0.036309201 0.0072661466 0.32069999 2240312
0.037165347 0.0072863861 0.32159999 2306105
0.037978511 0.0072975587 0.32209998 2370871
0.03884206 0.0073177889 0.32299998 2634043
0.039722044 0.0073402813 0.324 4803409
0.040481716 0.0073401146 0.324 6777199
0.041304979 0.0073512695 0.32449999 7236205
0.042312007 0.0073941359 0.32639998 6841447
0.043657847 0.0074936305 0.3308 9010557
0.045037668 0.0075953812 0.3353 11576484
0.046397526 0.0076903277 0.33949998 11773093
-0.016827308 0.009549452 0.3818 6184020
-0.015605775 0.0093545029 0.37399998 6184020
-0.014727975 0.0093546407 0.37399998 6184020
-0.013331682 0.0090045948 0.35999998 5921372
-0.012344459 0.0089021632 0.35589999 4013375
-0.011509032 0.0089022806 0.35589999 3292227
-0.010520621 0.0087748216 0.35079998 3094848
-0.0095920609 0.0086798733 0.347 2963521
-0.0087066069 0.0086099328 0.34419999 2831935
-0.007850335 0.0085574947 0.34209999 2897730
-0.0070244977 0.0085300673 0.34099999 2831937
-0.0061964998 0.008492629 0.33949998 2897728
-0.0053818845 0.0084651904 0.33840001 2897728
-0.0045873239 0.008465264 0.33840001 2897728
-0.003792742 0.0084653329 0.33840001 3029314
-0.0029937122 0.0084528876 0.33789998 3029314
-0.0022002682 0.0084529473 0.33789998 3029314
-0.0014068083 0.0084530022 0.33789998 2963521
-0.00061514881 0.0084780678 0.3389 3029314
0.00018100755 0.0084931226 0.33949998 3226693
0.00097970583 0.0085056713 0.34 3226693
0.001780763 0.0085182162 0.3405 3292486
0.0025765996 0.0085057393 0.34 3358279
0.0033750597 0.0085057663 0.34 3358279
0.0041735256 0.0085057877 0.34 3292486
0.0049485993 0.0084657781 0.33840001 3358533
0.0057348302 0.0084532807 0.33789998 3424326
0.0065283747 0.0084532881 0.33789998 3489604
0.007300253 0.0084282737 0.3369 3489604
0.0080914497 0.0084282728 0.3369 3621190
0.0088694636 0.0084157586 0.3364 3621190
0.0096594803 0.0084157465 0.3364 3818569
0.010465025 0.0084282402 0.3369 3752776
0.011256206 0.0084282197 0.3369 3752006
0.012047379 0.0084281946 0.3369 3752006
0.012796626 0.008400646 0.33579999 4015178
0.01354474 0.0083755953 0.3348 3949385
0.014266746 0.0083380314 0.33329999 4015178
0.014981694 0.0083004627 0.33179998 4015178
0.015713334 0.0082754008 0.3308 4080456
0.016440261 0.0082503315 0.32979998 4080456
0.017136376 0.0082127526 0.3283 4014663
0.017830886 0.0081776697 0.32690001 3948870
0.018598452 0.0081776055 0.32690001 3686211
0.019306755 0.0081525212 0.32589999 3620418
0.019985706 0.0081174271 0.32449999 3686213
0.020651666 0.0080798268 0.32299998 3620420
0.02135033 0.0080572329 0.32209998 3488834
0.022072196 0.0080446396 0.32159999 3554627
0.022699414 0.0079995254 0.31979999 3291455
0.023376815 0.0079744179 0.3188 3225662
0.024026789 0.0079418039 0.3175 3029053
0.024772061 0.0079417033 0.3175 2963260
0.025477119 0.0079290904 0.317 2832189
0.026146708 0.0079064704 0.3161 2634810
0.026888596 0.0079063578 0.3161 2569017
0.027630452 0.0079062404 0.3161 2503224
0.028372271 0.0079061193 0.3161 2502970
0.029196946 0.0079285037 0.317 2437177
0.029940801 0.0079283733 0.317 2240312
0.030733017 0.007940745 0.3175 2174519
0.031517625 0.0079506105 0.3179 2042933
0.032314215 0.0079629719 0.3184 2174519
0.033061191 0.0079628257 0.3184 2174519
0.033850595 0.0079726772 0.3188 2240312
0.034598418 0.0079725217 0.3188 2042933
0.035457071 0.0079973703 0.31979999 2042933
0.036252435 0.0080072088 0.3202 2240312
0.037165187 0.0080420496 0.32159999 2306105
0.037978344 0.0080543794 0.32209998 2437691
0.038841892 0.0080767069 0.32299998 2306105
0.039721869 0.0081015304 0.324 2567221
0.040481538 0.008101345 0.324 4146253
0.04135571 0.0081236577 0.3249 6908269
0.042311817 0.0081609674 0.32639998 7303027
0.043657649 0.0082707778 0.3308 8484727
0.045037463 0.0083830794 0.3353 11840170
0.046397321 0.0084878709 0.33949998 12233642
-0.016540674 0.010268916 0.37529999 6315606
-0.015396995 0.010096692 0.36899999 6183766
-0.014318289 0.0099490816 0.36359999 6315352
-0.013309332 0.0098342989 0.3594 5264212
-0.012344333 0.0097386595 0.35589999 3685180
-0.011508911 0.009738788 0.35589999 3095107
-0.010520509 0.0095993532 0.35079998 2963521
-0.0095919538 0.0094954837 0.347 2963523
-0.0087065054 0.0094189709 0.34419999 2897730
-0.007838767 0.009347924 0.3416 2897730
-0.0070141074 0.0093179187 0.3405 2831937
-0.0061854646 0.0092742257 0.3389 2766658
-0.0053738523 0.0092469444 0.33789998 2832451
-0.004573693 0.0092333416 0.33739999 2766658
-0.0037814646 0.009233417 0.33739999 2898244
-0.0029892176 0.0092334878 0.33739999 2898244
-0.0022002086 0.009247236 0.33789998 2898244
-0.0014025904 0.0092199286 0.3369 2898242
-0.00061146897 0.0092199817 0.3369 3095621
0.00017966602 0.0092200311 0.3369 2964035
0.00096937217 0.0092063919 0.3364 2964035
0.0017593557 0.009206431 0.3364 2964035
0.0025410121 0.0091763595 0.3353 2964035
0.0033234661 0.0091627054 0.3348 3095875
0.0041097151 0.0091627287 0.3348 3095875
0.0048813457 0.0091353785 0.33379999 3358533
0.0056567695 0.0091217076 0.33329999 3358533
0.0064395065 0.009121716 0.33329999 3489604
0.007222245 0.0091217188 0.33329999 3489604
0.008004983 0.009121716 0.33329999 3555397
0.0087877195 0.0091217095 0.33329999 3752776
0.0095704524 0.0091216974 0.33329999 3818569
0.01036871 0.0091353636 0.33379999 3752776
0.011152607 0.0091353413 0.33379999 3883592
0.011936498 0.0091353133 0.33379999 3883592
0.012701324 0.0091215977 0.33329999 4015178
0.013443561 0.0090941917 0.33229998 4080971
0.014159694 0.0090530999 0.3308 4015178
0.01489134 0.0090256846 0.32979998 4015178
0.015642032 0.0090119503 0.32929999 4015176
0.016365431 0.0089845266 0.3283 4015176
0.017089339 0.0089598345 0.3274 4014663
0.017803548 0.0089324014 0.32639998 3948870
0.018569935 0.0089323306 0.32639998 3949383
0.01927706 0.0089048892 0.32539999 3752004
0.019985629 0.0088801794 0.32449999 3686213
0.020651584 0.0088390466 0.32299998 3686213
0.021350244 0.0088143274 0.32209998 3554627
0.022072103 0.0088005513 0.32159999 3488834
0.022699319 0.0087511968 0.31979999 3423041
0.023376716 0.0087237312 0.3188 3159869
0.024026688 0.0086880503 0.3175 2963260
0.024771953 0.0086879386 0.3175 2897467
0.025477005 0.008674141 0.317 2832189
0.026146593 0.0086493948 0.3161 2832189
0.026888475 0.0086492701 0.3161 2634556
0.027630325 0.0086491406 0.3161 2568763
0.028408043 0.0086599514 0.31649998 2568763
0.02919681 0.0086734947 0.317 2437177
0.029940663 0.0086733513 0.317 2371384
0.030732874 0.0086868843 0.3175 2305591
0.031517476 0.0086976755 0.3179 2042933
0.032354657 0.0087221432 0.3188 2042933
0.033102572 0.0087219803 0.3188 1977140
0.033850435 0.0087218136 0.3188 1977140
0.034598254 0.0087216422 0.3188 1977140
0.035456903 0.0087488247 0.31979999 2174519
0.03625226 0.0087595871 0.3202 1977140
0.037165008 0.0087977005 0.32159999 2042933
0.037978161 0.008811187 0.32209998 2371898
0.038841702 0.0088356119 0.32299998 2437691
0.039721675 0.0088627664 0.324 2699836
0.04048134 0.0088625625 0.324 2436664
0.041419145 0.0089006471 0.32539999 3882309
0.042376436 0.0089414604 0.32690001 6711408
0.043789405 0.0090752626 0.33179998 8682366
0.045104403 0.0091844397 0.33579999 11314086
0.046465427 0.0092990762 0.34 12364969
-0.016403882 0.011058832 0.37219998 6315352
-0.015321731 0.010910439 0.36719999 6315352
-0.014270883 0.010767979 0.3624 6446938
-0.01328697 0.010661163 0.35879999 4540491
-0.012344198 0.010575141 0.35589999 3487803
