# .PCD v0.7 - Point Cloud Data file format
VERSION 0.7
FIELDS x y z rgb
SIZE 4 4 4 4
TYPE F F F U
COUNT 1 1 1 1
WIDTH 1105
HEIGHT 1
VIEWPOINT 0 0 0 1 0 0 0
POINTS 1105
DATA ascii
-0.020994531 -0.0040226895 0.39269999 2964553
-0.020037275 -0.0040155994 0.39199999 2964555
-0.01908325 -0.004008506 0.39129999 2964555
-0.018132461 -0.0040014088 0.3906 2965068
-0.017215768 -0.004001481 0.3906 2965068
-0.016299032 -0.0040015504 0.3906 3030863
-0.015382251 -0.0040016165 0.3906 3030863
-0.014439502 -0.0039945091 0.3899 2965070
-0.013524285 -0.0039945701 0.3899 2899277
-0.012609026 -0.0039946288 0.3899 2965068
-0.011693734 -0.0039946847 0.3899 2965068
-0.010778406 -0.0039947378 0.3899 3096141
-0.0098630451 -0.0039947885 0.3899 3030348
-0.0089476509 -0.003994836 0.3899 2964555
-0.0080322288 -0.0039948816 0.3899 2767176
-0.0071167778 -0.003994924 0.3899 2767176
-0.0061901668 -0.0039877919 0.3892 2767176
-0.0052681733 -0.0039816815 0.38859999 2636103
-0.0043556988 -0.003981716 0.38859999 2701896
-0.0034370008 -0.0039745755 0.38789999 2701896
-0.0025261284 -0.0039746049 0.38789999 2636103
-0.0016181523 -0.0039818045 0.38859999 2701896
-0.00070560043 -0.0039818278 0.38859999 2570310
0.00020696694 -0.0039818492 0.38859999 2635590
0.0011195482 -0.0039818683 0.38859999 2701383
0.0020321414 -0.0039818846 0.38859999 2701383
0.0029394408 -0.0039747246 0.38789999 2701383
0.0038504098 -0.0039747357 0.38789999 2635590
0.0047442019 -0.003960398 0.3865 2569797
0.0056518964 -0.0039604036 0.3865 2635590
0.0064357002 -0.0038856044 0.37919998 2701383
0.0071774912 -0.0038067037 0.37149999 2701383
0.0079177851 -0.0037441959 0.36539999 2635590
0.0087759336 -0.0037441913 0.36539999 2569797
0.0098951012 -0.0038456274 0.37529999 2701383
0.010202205 -0.0036406817 0.35529998 2701383
0.010983817 -0.0036232504 0.3536 2701383
0.011814236 -0.0036232367 0.3536 2832199
0.012565975 -0.0036006775 0.35139999 2832199
0.013391211 -0.0036006584 0.35139999 2897992
0.014216433 -0.0036006372 0.35139999 2897992
0.015088731 -0.0036118843 0.35249999 2767176
0.036134001 -0.003337756 0.32589999 8420479
0.036524773 -0.0033038738 0.32259998 8354686
0.037061803 -0.0032843286 0.32069999 8354686
0.037483763 -0.0032555657 0.3179 8354686
0.038121019 -0.0032462596 0.317 8288893
0.038864341 -0.0032461686 0.317 8354686
0.039545134 -0.0032409546 0.31649998 8420479
0.040172622 -0.0032316444 0.31559998 8288893
0.040912498 -0.0032315471 0.31559998 8288893
0.041903086 -0.003250903 0.3175 7959928
0.042889085 -0.0032692316 0.3193 7828342
0.044020135 -0.0032977951 0.32209998 7696756
0.044969629 -0.003312022 0.32349998 7499377
-0.022837413 -0.0030996117 0.39269999 2832967
-0.021916036 -0.0030996792 0.39269999 2964555
-0.020957183 -0.0030942191 0.39199999 2964555
-0.020037346 -0.0030942822 0.39199999 3030348
-0.01901504 -0.0030777664 0.3899 3030348
-0.018100033 -0.0030778253 0.3899 2965068
-0.017154127 -0.0030723561 0.3892 2899275
-0.016186424 -0.0030621479 0.38789999 2899275
-0.015275978 -0.0030622003 0.38789999 2965068
-0.014365491 -0.0030622499 0.38789999 2965068
-0.013454964 -0.0030622978 0.38789999 3030861
-0.0125444 -0.0030623437 0.38789999 2965068
-0.011591811 -0.0030513352 0.3865 2899275
-0.010665111 -0.0030458502 0.3858 3030348
-0.009759373 -0.0030458893 0.3858 3030348
-0.008853605 -0.0030459263 0.3858 2964555
-0.0079354439 -0.0030412243 0.38519999 2964555
-0.0070310268 -0.0030412578 0.38519999 2832969
-0.0061265808 -0.0030412881 0.38519999 2767176
-0.0052031325 -0.0030302641 0.3838 2701383
-0.0043019261 -0.0030302906 0.3838 2701383
-0.0033953832 -0.0030255779 0.38319999 2636103
-0.0024909864 -0.0030200731 0.38249999 2701896
-0.0015927736 -0.0030200938 0.38249999 2701896
-0.00069454411 -0.0030201119 0.38249999 2570310
0.0002040734 -0.0030256556 0.38319999 2636103
0.0011039757 -0.0030256696 0.38319999 2636103
0.0020002292 -0.003020155 0.38249999 2438724
0.0028735034 -0.0029941082 0.37919998 2636103
0.0037640431 -0.0029941159 0.37919998 2570310
0.0046312683 -0.0029791198 0.37729999 2504517
0.0054515535 -0.0029435917 0.37279999 2504517
0.0062014889 -0.0028851642 0.36539999 2504517
0.0070596389 -0.0028851635 0.36539999 2570310
0.0079177888 -0.0028851614 0.36539999 2570310
0.0087759383 -0.0028851565 0.36539999 2635590
0.010202216 -0.0028053939 0.35529998 2634304
0.010983828 -0.0027919614 0.3536 2765890
0.011814251 -0.0027919493 0.3536 3160135
0.012176209 -0.002688502 0.3405 2962756
0.012975847 -0.0026884864 0.3405 2832197
0.014216453 -0.0027745322 0.35139999 2766404
0.015088754 -0.0027831979 0.35249999 2767174
0.015641104 -0.0027350141 0.34639999 2701381
0.016454548 -0.0027349915 0.34639999 2635588
0.017407555 -0.0027570738 0.34919998 2701381
0.034868572 -0.0026502386 0.33579999 7039603
0.035497066 -0.0026383346 0.33429998 7039603
0.035901416 -0.0026106455 0.3308 7171441
0.036134072 -0.0025719076 0.32589999 7697785
0.036524847 -0.002545797 0.32259998 7631990
0.037061885 -0.0025307336 0.32069999 7631990
0.037755039 -0.0025267173 0.3202 7697783
0.038457818 -0.0025234881 0.31979999 7697783
0.039207704 -0.0025234146 0.31979999 7960955
0.039832599 -0.0025154487 0.3188 7960955
0.040465482 -0.0025082701 0.3179 8026491
0.041158896 -0.0025050358 0.3175 8026491
0.041903175 -0.0025049562 0.3175 7829112
0.042889178 -0.002519076 0.3193 7829112
0.044020232 -0.002541082 0.32209998 7763319
0.044900224 -0.0025480965 0.32299998 7631733
-0.022796763 -0.0021728149 0.39199999 2832969
-0.021877026 -0.0021728645 0.39199999 2964555
-0.020919815 -0.0021690323 0.39129999 3030348
-0.019965835 -0.0021651983 0.3906 3030348
-0.019015092 -0.0021613627 0.3899 3030348
-0.018067587 -0.0021575254 0.3892 2767689
-0.017066024 -0.0021464797 0.3872 2965068
-0.01612805 -0.0021426387 0.3865 2899275
-0.015193324 -0.0021387963 0.3858 2965068
-0.01428776 -0.0021388321 0.3858 2965068
-0.013382165 -0.0021388675 0.3858 2965068
-0.012457123 -0.0021355741 0.38519999 3096141
-0.011531864 -0.002131725 0.3845 2832969
-0.010609858 -0.0021278742 0.3838 2832969
-0.0096936347 -0.0021245761 0.38319999 3030348
-0.0087779034 -0.0021207221 0.38249999 2964555
-0.0078654308 -0.0021168659 0.3818 2964555
-0.0069689932 -0.0021168899 0.3818 2964555
-0.0060629873 -0.0021135854 0.38119999 2767176
-0.0051584179 -0.0021097248 0.38049999 2701383
-0.0042649596 -0.0021097439 0.38049999 2701383
-0.0033661628 -0.0021064342 0.37989998 2701383
-0.0024695138 -0.0021025692 0.37919998 2767176
-0.0015790485 -0.0021025834 0.37919998 2701383
-0.00068856665 -0.0021025962 0.37919998 2701383
0.00020155762 -0.0020987261 0.37849998 2570310
0.001083222 -0.0020848738 0.37599999 2570310
0.0019557707 -0.002073792 0.37399998 2570310
0.0028015068 -0.0020499555 0.36969998 2570310
0.0036697381 -0.0020499609 0.36969998 2636103
0.0044704652 -0.0020194673 0.3642 2570310
0.0052468264 -0.0019895264 0.35879999 2570308
0.0059638834 -0.0019484945 0.35139999 2636101
0.0067891558 -0.0019484936 0.35139999 2767174
0.0087877493 -0.0018481194 0.33329999 2831685
0.0095417928 -0.0018425683 0.33229998 4410456
0.010306667 -0.0018397884 0.33179998 5792109
0.011085893 -0.0018397794 0.33179998 6384244
0.011865111 -0.0018397694 0.33179998 5463142
0.012663374 -0.0018425302 0.33229998 2437439
0.014373927 -0.0018619096 0.33579999 2635590
0.015162497 -0.001861894 0.33579999 2635590
0.016454568 -0.0019206499 0.34639999 2570310
0.017407577 -0.0019361554 0.34919998 2504517
0.018023994 -0.0019145114 0.34529999 2505287
0.018834805 -0.0019144899 0.34529999 2571080
0.019645594 -0.0019144667 0.34529999 2767689
0.032611527 -0.0018673098 0.3369 5199200
0.033402007 -0.0018672637 0.3369 5527652
0.033979323 -0.0018555776 0.3348 5922410
0.034609038 -0.0018472157 0.33329999 5790306
0.035390943 -0.0018471661 0.33329999 6185064
0.035630148 -0.0018194057 0.3283 6710890
0.036078699 -0.0018032837 0.32539999 6908269
0.036468297 -0.0017849442 0.32209998 6908269
0.037165955 -0.0017821209 0.32159999 6908269
0.037814055 -0.00177708 0.32069999 7039855
0.038505983 -0.0017742546 0.3202 7237234
0.039256811 -0.0017741988 0.3202 7631992
0.039895136 -0.001769155 0.3193 7697785
0.040529188 -0.0017641104 0.3184 7697785
0.041158963 -0.0017590647 0.3175 7631992
0.041903246 -0.0017590047 0.3175 7631735
0.042768363 -0.0017639294 0.3184 7565942
0.043760635 -0.0017738385 0.3202 7631735
0.044650082 -0.0017793138 0.32119998 7368563
0.045459334 -0.0017814641 0.32159999 7368563
0.046284776 -0.0017841669 0.32209998 7236977
-0.023801193 -0.0012559756 0.39339998 2964553
-0.022796806 -0.0012515389 0.39199999 2832967
-0.021877067 -0.0012515705 0.39199999 2899275
-0.020919854 -0.0012493662 0.39129999 2899275
-0.019965874 -0.0012471606 0.3906 2899277
-0.018980987 -0.001242719 0.3892 2965070
-0.018039767 -0.0012408305 0.38859999 2899275
-0.017066056 -0.0012363865 0.3872 2767689
-0.016098872 -0.0012319412 0.3858 2965068
-0.015142157 -0.001227814 0.3845 2899275
-0.014213721 -0.0012256018 0.3838 2965068
-0.013312818 -0.0012256235 0.3838 3030861
-0.01239247 -0.0012237284 0.38319999 3096141
-0.011492901 -0.0012237483 0.38319999 3030348
-0.010538006 -0.0012173802 0.38119999 2964555
-0.0096253566 -0.0012151623 0.38049999 2964555
-0.0087182568 -0.0012132629 0.37989998 2964555
-0.0078118877 -0.001211043 0.37919998 2964555
-0.0069215549 -0.0012110575 0.37919998 2964555
-0.0060105179 -0.0012069194 0.3779 2832969
-0.0051231864 -0.001206932 0.3779 2832969
-0.0042358316 -0.0012069435 0.3779 2767176
-0.0033431391 -0.0012050378 0.37729999 2832969
-0.0024486859 -0.0012008953 0.37599999 2832969
-0.0015628189 -0.001198668 0.37529999 2832969
-0.00067913369 -0.0011945234 0.37399998 2767176
0.00019782188 -0.0011865451 0.37149999 2636103
0.0010613201 -0.0011766491 0.36839998 2636103
0.0019045178 -0.001163239 0.3642 2636103
0.0027189052 -0.001145995 0.35879999 2636103
0.0035615384 -0.0011459974 0.35879999 2636103
0.0043342132 -0.0011277931 0.3531 2570310
0.0051634731 -0.0011277937 0.3531 2635588
0.0059638848 -0.0011223634 0.35139999 2504002
0.0067891572 -0.001122362 0.35139999 2699838
0.0085662808 -0.0010377127 0.3249 6844279
0.0093178265 -0.0010364304 0.32449999 8160137
0.010079915 -0.0010364248 0.32449999 8291723
0.010855362 -0.0010376957 0.3249 8160655
0.011618379 -0.0010376885 0.3249 5528935
0.012400437 -0.0010392771 0.32539999 2437441
0.013245521 -0.0010456557 0.3274 2897992
0.014074306 -0.001050117 0.32879999 2569799
0.014936742 -0.0010564935 0.3308 2569799
0.015808562 -0.0010628692 0.3328 2504519
0.016689757 -0.0010692438 0.3348 2438726
0.017585548 -0.0010759366 0.3369 2373703
0.018834822 -0.0011027481 0.34529999 2307910
0.019645615 -0.001102732 0.34529999 2373703
0.02029643 -0.0010940927 0.34259999 2439496
0.021100838 -0.0010940749 0.34259999 2636103
0.021975556 -0.0010975692 0.34369999 2701896
0.031773806 -0.0010739411 0.3364 4213590
0.032311484 -0.0010656106 0.33379999 4279383
0.033094697 -0.0010655796 0.33379999 4672856
0.03372563 -0.0010607594 0.33229998 5067614
0.034349486 -0.0010559389 0.3308 5396318
0.034913156 -0.0010495218 0.32879999 5856869
0.035315454 -0.0010386355 0.32539999 6053478
0.035768289 -0.0010296642 0.32259998 5856099
0.036207933 -0.0010206926 0.31979999 5987683
0.036900196 -0.0010190617 0.3193 6185062
0.037590072 -0.0010174299 0.3188 6580074
0.038337674 -0.0010173931 0.3188 6974832
0.039085217 -0.0010173554 0.3188 7368820
0.039720263 -0.0010144452 0.3179 7368820
0.040414676 -0.0010131298 0.3175 7171441
0.040977526 -0.0010086227 0.3161 7105648
0.041718524 -0.0010085824 0.3161 7237234
0.042580359 -0.0010114128 0.317 7237234
0.043514691 -0.0010158374 0.3184 7368820
0.044386022 -0.0010186657 0.3193 7237234
0.045261495 -0.0010214929 0.3202 7171441
0.046011817 -0.0010214482 0.3202 7105648
0.046762064 -0.0010214027 0.3202 7105648
0.047512237 -0.0010213563 0.3202 7039855
0.048202071 -0.0010200335 0.31979999 6842476
-0.023801217 -0.00033142447 0.39339998 2963783
-0.022796828 -0.00033025941 0.39199999 3095369
-0.02187709 -0.00033027329 0.39199999 2767689
-0.020882452 -0.0003291071 0.3906 2899275
-0.019930113 -0.00032853012 0.3899 2701896
-0.018951746 -0.00032744702 0.38859999 2701896
-0.017974796 -0.00032627909 0.3872 2767689
-0.017035224 -0.00032570044 0.3865 2899275
-0.016073853 -0.00032461566 0.38519999 2899275
-0.015114608 -0.00032344606 0.3838 2965068
-0.014165593 -0.00032236011 0.38249999 2965068
-0.013267741 -0.00032236928 0.38249999 2899275
-0.012369848 -0.00032237795 0.38249999 2964555
-0.011450925 -0.00032179613 0.3818 3030348
-0.010502081 -0.00032020235 0.37989998 2964555
-0.0095924828 -0.00031961949 0.37919998 3030348
-0.0086723724 -0.00031853039 0.3779 3030348
-0.0077727567 -0.00031803077 0.37729999 2964555
-0.0068741064 -0.00031744639 0.3766 2964555
-0.0059803072 -0.00031694578 0.37599999 2832969
-0.0050798119 -0.00031585465 0.37469998 2832969
-0.00419997 -0.00031585878 0.37469998 2964555
-0.0033085891 -0.00031476666 0.3734 2832969
-0.0024154782 -0.00031266236 0.37090001 2964555
-0.0015395046 -0.00031165348 0.36969998 2964555
-0.00066679018 -0.0003095482 0.36719999 2832969
0.0001936115 -0.00030651514 0.36359999 2701896
0.0010353894 -0.00030297576 0.3594 2701896
0.0018579746 -0.00029952021 0.35529998 2701896
0.0026461568 -0.00029437817 0.34919998 2701896
0.0034662457 -0.000294378 0.34919998 2767176
0.0042126933 -0.0002893194 0.3432 2504004
0.0050187032 -0.00028931841 0.3432 2963008
0.0063061514 -0.00027515276 0.32639998 5658718
0.0069903708 -0.00027194715 0.32259998 6908785
0.0076903659 -0.00026992144 0.3202 7500406
0.0084186345 -0.00026915976 0.3193 7303027
0.0091426736 -0.00026839768 0.3184 7041141
0.0098904362 -0.00026839387 0.3184 7699071
0.010651559 -0.00026872681 0.3188 8095116
0.011400249 -0.00026872221 0.3188 3621192
0.012167985 -0.00026913863 0.3193 2437441
0.01297447 -0.0002703132 0.32069999 2832199
0.013808923 -0.00027190876 0.32259998 2569799
0.014652287 -0.00027350389 0.32449999 2569799
0.015480808 -0.00027467703 0.32589999 2504265
0.016340818 -0.00027627117 0.32780001 2438472
0.01721495 -0.000277949 0.32979998 2307910
0.018071186 -0.00027920498 0.33129999 2373703
0.018849108 -0.00027919639 0.33129999 2373703
0.019715868 -0.00028045141 0.3328 2439496
0.021100853 -0.00028870013 0.34259999 2373703
0.021540789 -0.00028388682 0.3369 2439496
0.022331765 -0.00028387635 0.3369 2636103
0.024133684 -0.00028646606 0.34 2701896
0.024931854 -0.00028645419 0.34 2701896
0.025767831 -0.00028686313 0.3405 2965066
0.026567111 -0.00028685041 0.3405 2899273
0.027285991 -0.00028599481 0.33949998 3096139
0.027991867 -0.00028505467 0.33840001 3030346
0.028786115 -0.00028504073 0.33840001 3227979
0.029405506 -0.00028334183 0.3364 3227979
0.02996161 -0.0002811373 0.33379999 3556174
0.030606791 -0.00027985903 0.33229998 3687760
0.031103212 -0.00027731722 0.32929999 3687760
0.031691995 -0.00027570166 0.3274 3753553
0.03246019 -0.00027568571 0.3274 4213588
0.033126853 -0.00027482733 0.32639998 4476760
0.033788785 -0.0002739687 0.32539999 4608087
0.034403503 -0.00027277297 0.324 4805466
0.035011601 -0.00027157695 0.32259998 4738903
0.035502214 -0.00026953898 0.3202 5199454
0.036049452 -0.00026800588 0.3184 5593697
0.03669221 -0.00026723012 0.3175 5725283
0.037436813 -0.00026721146 0.3175 5988453
0.038181365 -0.00026719246 0.3175 6120039
0.038925864 -0.00026717305 0.3175 6185832
0.039670311 -0.00026715326 0.3175 6449004
0.040351067 -0.00026671242 0.317 6514797
0.040977556 -0.00026593468 0.3161 6646383
0.041533791 -0.00026473604 0.31469998 7039601
0.04227145 -0.00026471488 0.31469998 7039601
0.043132048 -0.0002654503 0.31559998 7236723
0.043941215 -0.00026584885 0.3161 7170930
0.044681985 -0.00026582644 0.3161 7105394
0.045623861 -0.00026698085 0.3175 7171187
0.046367791 -0.00026695759 0.3175 7171441
0.047111642 -0.0002669339 0.3175 7105648
0.047780082 -0.00026648951 0.317 7105648
0.04852264 -0.00026646515 0.317 6908269
0.053825084 -0.00025273723 0.301 7368566
0.05452935 -0.00025270981 0.301 8750219
0.05440779 -0.00024890431 0.2965 12107456
0.054450948 -0.00024593875 0.29299998 13949660
-0.024724139 0.00059312431 0.39339998 2897990
-0.023758873 0.0005920729 0.39269999 2897992
-0.022756126 0.00058996608 0.39129999 3095371
-0.021838028 0.00058996998 0.39129999 2832969
-0.020882456 0.00058891851 0.3906 3030348
-0.019863665 0.00058590685 0.38859999 2899275
-0.018917615 0.00058485521 0.38789999 2767689
-0.01790981 0.00058169273 0.3858 2701896
-0.016977929 0.00058079173 0.38519999 2899275
-0.016015437 0.0005786845 0.3838 2767689
-0.015063413 0.00057672814 0.38249999 2767689
-0.014139673 0.00057567615 0.3818 2965068
-0.013243461 0.0005756797 0.3818 2899275
-0.012327808 0.00057477847 0.38119999 2832969
-0.011411937 0.00057372649 0.38049999 2832969
-0.010482732 0.00057176972 0.37919998 2832969
-0.009544421 0.00056890823 0.37729999 3030348
-0.0086287707 0.00056695135 0.37599999 3226955
-0.007731556 0.00056589913 0.37529999 3226955
-0.006826649 0.00056394213 0.37399998 3095369
-0.0059294123 0.00056213583 0.37279999 3095369
-0.0050282963 0.00055927405 0.37090001 3226955
-0.0041573774 0.00055927713 0.37090001 3095369
-0.0032642854 0.0005555104 0.36839998 2964553
-0.0023835672 0.00055189442 0.366 2964553
-0.0015091057 0.00054646889 0.3624 2832967
-0.00065262592 0.00054194801 0.3594 2832967
0.00018892629 0.00053501426 0.35479999 2701894
0.0010106146 0.00052898529 0.35079998 2701894
0.001811435 0.00052235305 0.34639999 2635590
0.0025840206 0.0005142127 0.34099999 2504004
0.0033848521 0.00051421527 0.34099999 3029055
0.0041856901 0.00051421771 0.34099999 4015950
0.005018705 0.00051753776 0.3432 6711406
0.0055226209 0.00049069809 0.32539999 7106164
0.0062056873 0.00048436678 0.32119998 6973803
0.0068885298 0.00047939268 0.3179 6447459
0.0075918981 0.00047668049 0.3161 6776424
0.0083105378 0.00047532545 0.3152 6908010
0.009024947 0.00047397029 0.3143 6909039
0.0097630825 0.00047397235 0.3143 7830141
0.010501212 0.00047397439 0.3143 7239807
0.011239332 0.00047397646 0.3143 2897469
0.012011743 0.00047533563 0.3152 2700615
0.012768142 0.00047594085 0.31559998 2766408
0.013547814 0.00047730005 0.31649998 2635338
0.014354278 0.00047941325 0.3179 2635338
0.015191052 0.00048228045 0.31979999 2373703
0.016011812 0.00048439365 0.32119998 2307910
0.016860008 0.00048711005 0.32299998 2307910
0.01764573 0.00048786591 0.32349998 2307910
0.018405335 0.00048786777 0.32349998 2439496
0.019715874 0.00050189492 0.3328 2373703
0.020041505 0.0004907368 0.32539999 2307910
0.020805508 0.00049073854 0.32539999 2307910
0.021668913 0.00049300247 0.32690001 2439496
0.023409678 0.00049737946 0.32979998 2505287
0.024183901 0.00049738114 0.32979998 2571080
0.025767835 0.00051351986 0.3405 2571080
0.026567116 0.00051352155 0.3405 2571080
0.026506396 0.00049738609 0.32979998 2767687
0.027239135 0.00049663364 0.32929999 2767687
0.028012026 0.00049663527 0.32929999 3030346
0.028618803 0.00049377134 0.3274 3030346
0.029252522 0.00049151067 0.32589999 3226955
0.029888373 0.00048940076 0.32449999 3424334
0.030375941 0.00048502855 0.32159999 3555920
0.031130567 0.00048503006 0.32159999 3687506
0.032460202 0.00049377896 0.3274 3819346
0.032497618 0.00048292152 0.3202 3885139
0.033207305 0.00048231968 0.31979999 4213588
0.033904444 0.00048156703 0.3193 4345174
0.034555785 0.00048021105 0.3184 4410708
0.035202861 0.00047885507 0.3175 4608087
0.035834342 0.00047734825 0.31649998 5002075
0.036472637 0.00047599224 0.31559998 5067868
0.037212789 0.00047599361 0.31559998 5331038
0.037952885 0.00047599495 0.31559998 5396831
0.038692929 0.00047599632 0.31559998 5660001
0.039432924 0.00047599772 0.31559998 5791587
0.04000739 0.00047403845 0.3143 6120039
0.040459029 0.00047072169 0.31209999 6317418
0.041005887 0.00046861151 0.3107 6448234
0.04168044 0.00046800956 0.31029999 6448234
0.042407732 0.0004680109 0.31029999 6710636
0.043009859 0.0004666548 0.30939999 6908015
0.043734919 0.00046665623 0.30939999 7039601
0.044718582 0.00046937246 0.31119999 7105394
0.045447748 0.00046937389 0.31119999 7105648
0.046310388 0.00047073266 0.31209999 7171441
0.047101825 0.00047133744 0.3125 7237234
0.04789507 0.00047194221 0.31290001 7500406
0.048845533 0.00047405521 0.3143 6908269
0.049928691 0.000477375 0.31649998 6842476
0.054144345 0.00046275675 0.30679998 5658720
0.053020403 0.0004472225 0.2965 5527906
0.053152543 0.00044254825 0.29339999 5001562
0.053545356 0.00044013653 0.29179999 5001308
0.054227956 0.00044013819 0.29179999 5593445
-0.024680132 0.0015149575 0.39269999 2897990
-0.023716506 0.0015122799 0.39199999 2897992
-0.022756113 0.0015096016 0.39129999 2897992
-0.021838017 0.0015096234 0.39129999 2963785
-0.020845018 0.0015042432 0.3899 2897992
-0.019863656 0.0014992483 0.38859999 2767176
-0.018917602 0.0014965675 0.38789999 2767176
-0.017909797 0.0014884846 0.3858 2701896
-0.016977917 0.0014861883 0.38519999 2701896
-0.015990388 0.0014784898 0.38319999 2571080
-0.015063404 0.0014758065 0.38249999 2636873
-0.014117442 0.0014708074 0.38119999 2636873
-0.013177548 0.0014658076 0.37989998 2768459
-0.012285758 0.0014658232 0.37989998 2767689
-0.011351945 0.0014604364 0.37849998 2767689
-0.010446786 0.0014581357 0.3779 2964555
-0.0095115267 0.0014508181 0.37599999 2964555
-0.0085828649 0.0014431141 0.37399998 3226955
-0.0076676849 0.0014361813 0.37219998 3161162
-0.0067591053 0.0014288619 0.37029999 3161162
-0.0058498797 0.0014192265 0.3678 3161162
-0.0049537257 0.0014099763 0.36539999 3095369
-0.004095722 0.0014099865 0.36539999 3095369
-0.0032111153 0.00139842 0.3624 3161162
-0.0023366716 0.0013845373 0.35879999 3095369
-0.0014795344 0.0013710395 0.35529998 2964553
-0.0006380938 0.001355998 0.35139999 2964553
0.00018504393 0.0013409555 0.3475 2964553
0.00098872441 0.0013243689 0.3432 2569795
0.0017947053 0.0013243748 0.3432 3094848
0.0025840243 0.0013158907 0.34099999 4608087
0.003384856 0.0013158957 0.34099999 6974832
0.0040482162 0.0012726799 0.32979998 7501176
0.0047511025 0.0012537749 0.3249 6447457
0.0054513421 0.0012394999 0.32119998 5460562
0.0061515928 0.0012286976 0.3184 4998728
0.0068386933 0.0012178947 0.31559998 5196107
0.0075366581 0.0012109502 0.31379998 6248797
0.0082630813 0.0012094082 0.3134 7301485
0.0089847492 0.0012074795 0.31290001 7632762
0.0097195944 0.00120748 0.31290001 7566969
0.010454436 0.0012074797 0.31290001 6910072
0.01118927 0.0012074793 0.31290001 2830906
0.011924095 0.0012074782 0.31290001 2896965
0.012679139 0.0012094063 0.3134 2896965
0.013432241 0.001210948 0.31379998 2700615
0.014191726 0.0012128751 0.3143 2700615
0.014972544 0.0012163455 0.3152 2569797
0.015757576 0.0012198152 0.3161 2635590
0.016546817 0.0012232845 0.317 2504517
0.017318452 0.0012252097 0.3175 2504517
0.018007072 0.0012213461 0.31649998 2504517
0.018726524 0.0012197976 0.3161 2438724
0.019468712 0.0012197921 0.3161 2307910
0.020268423 0.0012232589 0.317 2307910
0.021668909 0.0012614551 0.32690001 2373703
0.022763744 0.0012375157 0.32069999 2373703
0.023516603 0.0012375079 0.32069999 2439496
0.025815202 0.001239411 0.32119998 2767689
0.026569115 0.0012394013 0.32119998 2636103
0.028012021 0.0012706461 0.32929999 2832969
0.028618796 0.0012633039 0.3274 2832969
0.028615229 0.0012301093 0.3188 2964555
0.029243626 0.0012250817 0.3175 3030348
0.029988678 0.00122507 0.3175 3096141
0.031130563 0.0012408774 0.32159999 3227727
0.032497611 0.0012354499 0.3202 3490899
0.033207297 0.0012338931 0.31979999 3358795
0.033904444 0.0012319501 0.3193 3885139
0.034555782 0.0012284631 0.3184 4016209
0.035202857 0.0012249763 0.3175 4279381
0.035834331 0.0012211029 0.31649998 4410454
0.036472633 0.0012176153 0.31559998 4542040
0.037212782 0.0012175996 0.31559998 4871259
0.037952881 0.0012175834 0.31559998 5002845
0.038692921 0.0012175668 0.31559998 5200222
0.039432917 0.00121755 0.31559998 5200222
0.040007383 0.0012125175 0.3143 5462624
0.040459018 0.0012040127 0.31209999 5857382
0.041005876 0.001198594 0.3107 5791589
0.041680429 0.0011970327 0.31029999 5988968
0.042407721 0.0011970142 0.31029999 6250857
0.043009847 0.0011935236 0.30939999 6316650
0.043734912 0.0011935043 0.30939999 6448236
0.044718567 0.0012004281 0.31119999 6514029
0.045447733 0.0012004081 0.31119999 6579822
0.046310376 0.0012038592 0.31209999 6974580
0.047101822 0.0012053814 0.3125 6514799
0.047895059 0.0012069031 0.31290001 6777971
0.04884553 0.0012122814 0.3143 6317420
0.04992868 0.0012207448 0.31649998 6120041
0.054144334 0.0011831484 0.30679998 4475731
0.053020392 0.0011434037 0.2965 4541270
0.053152528 0.0011314256 0.29339999 4475477
0.053545345 0.0011252319 0.29179999 4607063
0.053651843 0.0011132539 0.28869998 4409684
0.054327115 0.0011132299 0.28869998 4080206
-0.025601313 0.0024378016 0.39269999 2767176
-0.024680093 0.0024378444 0.39269999 2701383
-0.023674123 0.002429195 0.39129999 2767176
-0.022715373 0.0024248897 0.3906 2767176
-0.02179892 0.0024249293 0.3906 2767176
-0.020807566 0.0024162761 0.3892 2767176
-0.019827843 0.0024082423 0.38789999 2701383
-0.018883437 0.0024039322 0.3872 2767176
-0.017881917 0.0023915498 0.38519999 2899275
-0.016916187 0.002382891 0.3838 2701896
-0.015961153 0.0023748521 0.38249999 2571080
-0.015012182 0.0023668115 0.38119999 2636873
-0.014069274 0.0023587698 0.37989998 2636873
-0.013128963 0.0023501061 0.37849998 2636873
-0.012240462 0.0023501338 0.37849998 2767689
-0.01129494 0.0023383631 0.3766 2767689
-0.010374892 0.002330316 0.37529999 2832969
-0.0094457371 0.0023185427 0.3734 2964555
-0.0085117063 0.0023030424 0.37090001 3030348
-0.0075770239 0.0022838148 0.3678 2832969
-0.0066586984 0.0022652072 0.36479998 3161162
-0.005754434 0.002246598 0.36179999 3161162
-0.0048642354 0.0022279874 0.35879999 3095369
-0.0040217303 0.0022280044 0.35879999 3095369
-0.0031481916 0.0022062866 0.35529998 3095369
-0.0022956317 0.0021889142 0.35249999 3161162
-0.001451624 0.0021647098 0.3486 3094855
-0.00062609959 0.0021411255 0.3448 2765890
0.000183615 0.0021411367 0.3448 3488836
0.00098873232 0.0021312116 0.3432 5331040
0.0017403275 0.0020666383 0.3328 7368818
0.0024877926 0.0020387021 0.3283 7566197
0.0032587978 0.0020387091 0.3283 6841698
0.0039831651 0.0020151176 0.32449999 5657424
0.0047452571 0.0020151227 0.32449999 5326663
0.0054513449 0.001994634 0.32119998 5326663
0.0061515952 0.0019772493 0.3184 5392456
0.0068386947 0.0019598638 0.31559998 5458249
0.0075366595 0.0019486871 0.31379998 5064521
0.0082630813 0.0019462038 0.3134 5788244
0.0089847492 0.0019430985 0.31290001 7368820
0.0097195935 0.0019430972 0.31290001 7697785
0.010454435 0.0019430951 0.31290001 7436153
0.011189268 0.0019430921 0.31290001 4014917
0.011924092 0.0019430881 0.31290001 2830652
0.012679136 0.0019461882 0.3134 2764859
0.013432236 0.0019486662 0.31379998 2830654
0.014191722 0.0019517649 0.3143 3028033
0.014972539 0.0019573462 0.3152 2568765
0.01575757 0.0019629267 0.3161 2437179
0.016546812 0.0019685063 0.317 2371646
0.017318444 0.0019716006 0.3175 2634818
0.018007066 0.0019653796 0.31649998 2504004
0.018726515 0.0019628839 0.3161 2504004
0.019468704 0.0019628713 0.3161 2504517
0.020268414 0.0019684462 0.317 2438724
0.022763729 0.0019913747 0.32069999 2504519
0.023516594 0.0019913574 0.32069999 2438726
0.025815187 0.0019944045 0.32119998 2570310
0.026569096 0.0019943833 0.32119998 2570310
0.02861521 0.0019794141 0.3188 2767176
0.029243607 0.0019713186 0.3175 2964555
0.02998866 0.0019712937 0.3175 2964555
0.032497592 0.0019879772 0.3202 3096139
0.032771155 0.0019593895 0.31559998 3227725
0.033469066 0.0019568775 0.3152 3425104
0.034110788 0.0019512603 0.3143 3555920
0.034848034 0.00195123 0.3143 3753299
0.035528615 0.0019480946 0.31379998 3950418
0.036218368 0.0019455795 0.3134 3950418
0.0368944 0.0019424432 0.31290001 3950418
0.037628163 0.0019424098 0.31290001 4345176
0.038423181 0.0019454794 0.3134 4410967
0.038995579 0.0019373744 0.31209999 4542553
0.039549112 0.0019286486 0.3107 4937052
0.03994045 0.001912473 0.30809999 5002845
0.040385541 0.0018994014 0.30599999 5068638
0.040981922 0.001893778 0.30509999 5266017
0.041587692 0.0018887747 0.30429998 5199454
0.042189654 0.0018837708 0.3035 5002075
0.042773668 0.0018781457 0.3026 4738903
0.043482747 0.0018781062 0.3026 4738903
0.044016518 0.0018706182 0.30140001 4672856
0.044544585 0.0018631297 0.30019999 4738649
0.045172494 0.0018599853 0.29969999 4607063
0.045874525 0.0018599433 0.29969999 4475477
0.046576492 0.0018599005 0.29969999 4541270
0.047152203 0.0018548925 0.29889998 4541270
0.04785217 0.0018548486 0.29889998 4673110
0.048763245 0.001862871 0.30019999 4607317
0.048922367 0.0018423483 0.2969 4673110
0.049617458 0.0018423029 0.2969 4673110
0.050176904 0.0018372926 0.29609999 4542040
0.050869994 0.001837246 0.29609999 4015696
0.051423695 0.001832235 0.29530001 3620940
0.051850051 0.0018228804 0.2938 3752526
0.052179895 0.0018104234 0.29179999 3554893
0.052518431 0.0017985872 0.2899 3554893
0.052701212 0.0017817877 0.2872 3489102
0.053038541 0.0017705719 0.2854 3423309
0.053706091 0.0017705229 0.2854 3357514
0.054134574 0.0017412674 0.2807 3818065
0.0543615 0.0017275705 0.27849999 3489100
0.05440028 0.0017082912 0.27539998 3619657
-0.02560126 0.0033606652 0.39269999 2701383
-0.024680045 0.0033607278 0.39269999 2767176
-0.023674075 0.0033488076 0.39129999 2767176
-0.022715325 0.0033428753 0.3906 2832969
-0.021798873 0.0033429326 0.3906 2701383
-0.020807521 0.003331006 0.3892 2767176
-0.0198278 0.0033199331 0.38789999 2767176
-0.018883392 0.0033139938 0.3872 2767176
-0.017881876 0.0032969264 0.38519999 2899275
-0.016916145 0.003284992 0.3838 2636103
-0.015961116 0.0032739118 0.38249999 2571080
-0.015012146 0.0032628295 0.38119999 2571080
-0.014069238 0.0032517447 0.37989998 2571080
-0.013128928 0.003239803 0.37849998 2571080
-0.012240428 0.0032398428 0.37849998 2701896
-0.011294908 0.0032236171 0.3766 2767689
-0.010374861 0.0032125255 0.37529999 2832969
-0.0094457101 0.0031962967 0.3734 2832969
-0.0085116792 0.0031749285 0.37090001 2964555
-0.0075769993 0.003148423 0.3678 2832969
-0.0066586738 0.0031227716 0.36479998 3161162
-0.0057544112 0.0030971181 0.36179999 3161162
-0.0048642145 0.003071463 0.35879999 3161162
-0.0040217098 0.0030714869 0.35879999 3161162
-0.0031481737 0.0030415473 0.35529998 3095369
-0.0022956147 0.0030175988 0.35249999 2766404
-0.0014516086 0.0029842313 0.3486 3225410
-0.00062608538 0.0029517182 0.3448 5791337
0.00018362794 0.002951734 0.3448 7106418
0.0017403375 0.0028490315 0.3328 6578013
0.0024878015 0.0028105185 0.3283 5722704
0.0032588053 0.0028105278 0.3283 5787212
0.0039831717 0.0027780044 0.32449999 5524040
0.0046896935 0.0027454796 0.32069999 5655366
0.0053953426 0.0027215141 0.3179 5589573
0.006089774 0.0026984036 0.3152 5523526
0.0067996928 0.0026864205 0.31379998 5457733
0.0074958312 0.0026718678 0.31209999 5195590
0.008228804 0.0026718674 0.31209999 4866625
0.0089474181 0.0026675856 0.3116 7039853
0.0096667837 0.0026641579 0.31119999 8158334
0.010397631 0.0026641539 0.31119999 7699323
0.01112847 0.0026641483 0.31119999 7304565
0.011859302 0.0026641411 0.31119999 6581103
0.012590124 0.002664133 0.31119999 6515310
0.013338057 0.0026675481 0.3116 6450291
0.014092374 0.0026718178 0.31209999 6647670
0.014825272 0.0026718059 0.31209999 6516343
0.015598039 0.0026786411 0.31290001 5792620
0.016332787 0.0026786262 0.31290001 4279383
0.017067518 0.0026786102 0.31290001 2963523
0.017779473 0.0026751687 0.3125 2240060
0.018459909 0.0026674455 0.3116 2700611
0.01919153 0.0026674259 0.3116 2569795
0.019980671 0.0026751091 0.3125 2569795
0.020714361 0.0026750865 0.3125 2307138
0.021509795 0.0026827671 0.3134 2307138
0.02230943 0.0026904461 0.3143 2241345
0.023076596 0.0026938433 0.31469998 2307138
0.023815343 0.0026938161 0.31469998 2307138
0.024554059 0.0026937868 0.31469998 2504517
0.025292747 0.0026937567 0.31469998 2570310
0.026105851 0.0027014287 0.31559998 2504517
0.028166382 0.0026859196 0.31379998 2570310
0.028819893 0.0026781801 0.31290001 2701896
0.029554145 0.0026781429 0.31290001 2767176
0.030210922 0.0026712569 0.31209999 2832969
0.03094322 0.0026712166 0.31209999 2832969
0.031675473 0.0026711756 0.31209999 2964555
0.03240769 0.0026711337 0.31209999 3030348
0.033086773 0.0026668105 0.3116 3161934
0.033817723 0.0026667661 0.3116 3227727
0.034548633 0.0026667204 0.3116 3227727
0.035336103 0.0026709519 0.31209999 3555920
0.036068089 0.0026709039 0.31209999 3687506
0.03658779 0.0026554507 0.31029999 3753553
0.037315454 0.0026554002 0.31029999 3819346
0.038043071 0.0026553487 0.31029999 4016725
0.038495753 0.0026364704 0.30809999 3885139
0.038950797 0.0026184472 0.30599999 4147797
0.039668173 0.0026183927 0.30599999 4542555
0.0403855 0.002618338 0.30599999 4147795
0.040981874 0.0026105805 0.30509999 4147795
0.041587643 0.0026036778 0.30429998 3884623
0.041216537 0.0025368822 0.2965 3753037
0.041798286 0.0025299799 0.29569998 3358281
0.04249119 0.002529921 0.29569998 3489867
0.043008786 0.0025195947 0.29449999 2963783
0.043698754 0.002519534 0.29449999 3095369
0.045172438 0.002563959 0.29969999 3226441
0.045874476 0.0025638954 0.29969999 3226441
0.046576444 0.0025638307 0.29969999 3423820
0.046158314 0.0025030286 0.29260001 3358027
0.046779487 0.0024995415 0.2922 3489867
0.047463704 0.0024994756 0.2922 3818832
0.048922312 0.0025396114 0.2969 4016211
0.049617395 0.0025395423 0.2969 4016211
0.050176851 0.0025326295 0.29609999 3884112
0.05006247 0.0024923594 0.29139999 3620940
0.050552931 0.0024828806 0.29029998 3423822
0.051161714 0.0024793884 0.2899 3423822
0.051232088 0.0024502384 0.28650001 3292236
0.051703155 0.002440759 0.2854 3292236
0.052297447 0.0024372656 0.285 3095373
0.05268538 0.0024243649 0.28349999 3161166
0.052746322 0.0023969263 0.28029999 3095371
0.053401884 0.0023968527 0.28029999 3226957
0.053710233 0.0023813867 0.27849999 3226957
0.054029606 0.0023667754 0.27680001 3095371
0.054321211 0.0023513099 0.27500001 3161164
0.054624308 0.0023366988 0.27329999 3161164
-0.025601188 0.0042835246 0.39269999 2635590
-0.024635982 0.0042759711 0.39199999 2701383
-0.023674004 0.0042684139 0.39129999 2701383
-0.022674549 0.0042532198 0.3899 2767176
-0.021759741 0.0042532953 0.3899 2701383
-0.020775378 0.0042391857 0.38859999 2767176
-0.019791959 0.0042239833 0.3872 2767176
-0.018849196 0.0042164149 0.3865 2767176
-0.017849321 0.0041946615 0.3845 2767176
-0.016916091 0.0041870885 0.3838 2701383
-0.015931852 0.0041653295 0.3818 2701896
-0.014984528 0.0041512046 0.38049999 2701896
-0.013995124 0.0041228957 0.3779 2767689
-0.013042166 0.0041022198 0.37599999 2899275
-0.012159536 0.0041022711 0.37599999 2701896
-0.011198892 0.0040739533 0.3734 2767689
-0.010269773 0.0040532704 0.37149999 2832969
-0.0093343658 0.0040260381 0.36899999 2832969
-0.0083854245 0.003986801 0.36539999 2963785
-0.0074657202 0.0039541083 0.3624 2963785
-0.0065491241 0.0039148661 0.35879999 3095371
-0.005651 0.0038767122 0.35529998 3095371
-0.0047638654 0.003834191 0.35139999 3226441
-0.0039387392 0.003834221 0.35139999 3226441
-0.0030887837 0.0038036976 0.3486 3093826
-0.0022487035 0.0037677165 0.34529999 4475479
-0.0014245214 0.0037328235 0.34209999 7369336
-0.00061444595 0.0036924728 0.33840001 7698301
0.00017805255 0.0036477542 0.33429998 7367276
0.00095303491 0.0036095812 0.3308 6183002
0.0017121118 0.0035724971 0.3274 5918284
0.0024590169 0.0035408663 0.32449999 5984077
0.0032210953 0.0035408782 0.32449999 6115147
0.0039426726 0.0035048784 0.32119998 6115147
0.0046560667 0.0034743333 0.3184 5983561
0.0053563118 0.0034437859 0.31559998 5917768
0.0060723885 0.0034296047 0.3143 5457987
0.0067801923 0.0034143303 0.31290001 5457987
0.0074838232 0.0034001456 0.3116 5261635
0.008191891 0.0033903238 0.3107 5261635
0.008910086 0.0033859564 0.31029999 6973801
0.0096263969 0.0033815862 0.30989999 8289661
0.010354191 0.0033815801 0.30989999 7961723
0.011064095 0.0033761165 0.30939999 8027516
0.011775455 0.0033717423 0.30899999 7765114
0.012484925 0.0033673653 0.30859998 8028286
0.013209629 0.0033673525 0.30859998 8160389
0.013952386 0.0033717025 0.30899999 7831424
0.014678003 0.0033716862 0.30899999 7634563
0.015403607 0.0033716676 0.30899999 7634563
0.016129196 0.0033716476 0.30899999 7568518
0.017067499 0.0034141808 0.31290001 5923693
0.017529117 0.0033617825 0.30809999 3029062
0.01822884 0.003357393 0.30769998 2568511
0.018951302 0.003357366 0.30769998 2700613
0.01969932 0.0033617024 0.30809999 2700613
0.020422677 0.0033616726 0.30809999 2504517
0.021146005 0.0033616405 0.30809999 2307138
0.021904806 0.0033670624 0.30859998 2241345
0.022687921 0.0033757561 0.30939999 2438724
0.02381531 0.0034335451 0.31469998 2438724
0.024554024 0.003433506 0.31469998 2438724
0.024906933 0.0033810958 0.30989999 2438724
0.025634317 0.0033810537 0.30989999 2504517
0.027088996 0.0033809652 0.30989999 2504517
0.027816283 0.0033809186 0.30989999 2569797
0.028460633 0.0033710513 0.30899999 2635590
0.029147955 0.0033666375 0.30859998 2701383
0.029872078 0.0033665863 0.30859998 2701383
0.030635821 0.0033708971 0.30899999 2767176
0.031360801 0.0033708424 0.30899999 2767176
0.032085747 0.0033707861 0.30899999 2767176
0.032768168 0.0033663644 0.30859998 2964555
0.033437818 0.0033608512 0.30809999 3030350
0.034160517 0.0033607902 0.30809999 3030350
0.034792591 0.0033520013 0.3073 3096143
0.035316851 0.0033333944 0.30559999 3161936
0.035880264 0.0033191498 0.30429998 3425104
0.03643753 0.0033049043 0.303 3490897
0.037148029 0.0033048368 0.303 3687506
0.0375586 0.0032785912 0.30059999 3753299
0.038046978 0.0032599801 0.29889998 3819092
0.038384736 0.0032293715 0.29609999 3687506
0.039078847 0.0032292993 0.29609999 3555920
0.040243402 0.0031571009 0.2895 3226955
0.040865283 0.0031526627 0.28909999 2964553
0.041384652 0.0031405906 0.28799999 2832967
0.042059451 0.0031405126 0.28799999 2767176
0.042615492 0.00313171 0.2872 2701383
0.042519603 0.0030760188 0.28209999 2635588
0.042369146 0.0030181492 0.27680001 2767174
0.042908687 0.0030104362 0.27609998 3095369
0.043492228 0.003005994 0.2757 3095369
0.044025801 0.0029982796 0.27500001 3226955
0.044621002 0.0029949255 0.27469999 3424334
0.045264181 0.002994841 0.27469999 3555920
0.0459073 0.0029947555 0.27469999 3555920
0.046550345 0.0029946687 0.27469999 3292750
0.047365144 0.0030054818 0.2757 3095371
0.048497993 0.0030359153 0.27849999 2963787
0.049096804 0.0030325535 0.2782 3095373
0.049747799 0.0030324606 0.2782 2832971
0.050525524 0.0030399968 0.2789 2767178
0.051104613 0.0030355416 0.27849999 2766924
0.051756103 0.003035445 0.27849999 2964303
0.052539241 0.0030429771 0.27919999 2766924
0.053192221 0.0030428779 0.27919999 2701131
0.053575143 0.0030275208 0.27779999 2964557
0.053951439 0.0030121633 0.2764 2832971
0.054261856 0.0029935359 0.27469999 2832971
0.054624222 0.0029781791 0.27329999 2832971
-0.026522245 0.0052062743 0.39269999 2636103
-0.025555462 0.0051970971 0.39199999 2701383
-0.024591899 0.005187917 0.39129999 2701383
-0.023631567 0.0051787347 0.3906 2701385
-0.022633757 0.0051602679 0.3892 2701385
-0.021720592 0.0051603606 0.3892 2701383
-0.020737875 0.0051432136 0.38789999 2701383
-0.019791882 0.0051340181 0.3872 2701383
-0.018785721 0.0051075825 0.38519999 2635590
-0.017816756 0.0050891 0.3838 2701383
-0.01682787 0.0050626583 0.3818 2635590
-0.015877537 0.005045495 0.38049999 2701383
-0.014882075 0.0050110901 0.3779 2701383
-0.013946918 0.0049939202 0.3766 2832969
-0.012931111 0.0049435953 0.37279999 2832969
-0.012055994 0.0049436581 0.37279999 2767176
-0.01108787 0.0049026092 0.36969998 2832969
-0.010150854 0.0048695132 0.36719999 2832969
-0.0091977194 0.0048218267 0.36359999 2832969
-0.0082614571 0.004774136 0.35999998 2963785
-0.0073441337 0.0047277687 0.3565 2897992
-0.0064340918 0.0046747667 0.35249999 2897992
-0.0055539431 0.0046310448 0.34919998 2897992
-0.0046811351 0.0045793625 0.34529999 2963010
-0.003870334 0.0045793988 0.34529999 3423561
-0.0030355905 0.0045436248 0.34259999 6250855
-0.0022109046 0.0045025428 0.33949998 7435129
-0.0013982631 0.0044535012 0.33579999 7565170
-0.00060425524 0.0044137402 0.3328 5722966
0.00017540966 0.004367345 0.32929999 5984593
0.00093749526 0.0043156417 0.32539999 6181972
0.0016917324 0.0042904611 0.32349998 6247249
0.0024264457 0.0042467103 0.3202 6049870
0.0031784235 0.0042467238 0.3202 6180940
0.0039021752 0.0042162309 0.3179 6180940
0.0046224403 0.0041923677 0.3161 5917768
0.0053342539 0.0041685011 0.3143 5720389
0.0060453434 0.0041499375 0.31290001 5523010
0.0067433571 0.004127393 0.31119999 5523010
0.0074526002 0.0041154572 0.31029999 5392708
0.0081707956 0.00411015 0.30989999 5458501
0.0088727521 0.0040982091 0.30899999 5722704
0.0095704785 0.0040862667 0.30809999 6380634
0.010294041 0.0040862579 0.30809999 6907238
0.011003292 0.0040809424 0.30769998 6907238
0.011691604 0.0040689935 0.30679998 7500655
0.012379725 0.0040583685 0.30599999 5987416
0.013098322 0.0040583522 0.30599999 7106416
0.013798845 0.0040530283 0.30559999 8027518
0.014492727 0.0040463763 0.30509999 7633793
0.01518923 0.0040410478 0.30469999 7502207
0.015883841 0.0040357183 0.30429998 7634311
0.016598376 0.0040356908 0.30429998 7700104
0.017312892 0.0040356615 0.30429998 5199718
0.018003693 0.0040303259 0.3039 2370619
0.018717229 0.0040302929 0.3039 2766406
0.019430747 0.004030257 0.3039 2634820
0.020117726 0.0040249154 0.3035 2504006
0.020830255 0.0040248754 0.3035 2372420
0.021542763 0.0040248339 0.3035 2438726
0.022218579 0.00401816 0.303 2438726
0.022929858 0.0040181144 0.303 2438726
0.023641106 0.0040180669 0.303 2438726
0.024352329 0.0040180176 0.303 2241347
0.025137966 0.0040299008 0.3039 2241347
0.02588526 0.0040351511 0.30429998 2307140
0.026599439 0.0040350948 0.30429998 2307140
0.027313579 0.0040350375 0.30429998 2438724
0.028101368 0.0040455856 0.30509999 2438724
0.028817318 0.0040455232 0.30509999 2570310
0.029581623 0.0040520895 0.30559999 2504517
0.030338326 0.0040573273 0.30599999 2504517
0.031096864 0.0040625627 0.3064 2636103
0.031732634 0.0040518856 0.30559999 2701896
0.032396462 0.0040451847 0.30509999 2701896
0.033025336 0.0040345034 0.30429998 2701896
0.033694774 0.004029125 0.3039 2701896
0.034215096 0.0040065097 0.30219999 3030350
0.034785181 0.0039905217 0.301 3096143
0.035243474 0.0039626011 0.29889998 3161934
0.035703897 0.0039360058 0.2969 3227727
0.036400087 0.0039359229 0.2969 3293518
0.036746379 0.0038987198 0.29409999 3425104
0.037194058 0.0038734477 0.2922 3227725
0.037580922 0.0038428716 0.2899 3161932
0.038260505 0.0038427839 0.2899 3096141
0.038335577 0.0037830451 0.2854 2964555
0.038895167 0.0037723512 0.28459999 2832969
0.039409257 0.0037576796 0.28349999 2767176
0.039932266 0.0037443324 0.2825 2701383
0.040479276 0.0037336347 0.28169999 2635590
0.04113932 0.003733539 0.28169999 2635592
0.041695427 0.0037241646 0.28099999 2504006
0.041720673 0.0036684037 0.27680001 2832197
0.042200681 0.0036537272 0.2757 2963783
0.042737652 0.0036443507 0.27500001 3358795
0.043176636 0.0036270218 0.2737 3621967
0.043817583 0.0036269194 0.2737 3687760
0.044393502 0.0036215151 0.27329999 3556174
0.045033395 0.0036214094 0.27329999 3292750
0.045790214 0.0036305778 0.27399999 3095371
0.046380799 0.0036264947 0.2737 2963787
0.047021445 0.0036263845 0.2737 2832201
0.047958061 0.0036487964 0.27539998 2766924
0.048726093 0.0036579568 0.27609998 2832717
0.049372166 0.0036578414 0.27609998 2635851
0.050018165 0.0036577247 0.27609998 2635851
0.050847609 0.0036708536 0.2771 2439242
0.051440071 0.0036667595 0.27680001 2505035
0.052012231 0.0036613396 0.2764 2570828
0.05265867 0.0036612169 0.2764 2505035
0.05317004 0.0036518211 0.2757 2570828
0.053678054 0.0036424242 0.27500001 2505035
0.054123476 0.0036290532 0.27399999 2570058
0.054624103 0.0036196553 0.27329999 2635851
-0.028364239 0.0061288415 0.39269999 3029316
-0.027443213 0.006128971 0.39269999 2767174
-0.026522128 0.0061290977 0.39269999 2635588
-0.025509713 0.0061073708 0.39129999 2701385
-0.024547799 0.0060965656 0.3906 2701385
-0.023546761 0.0060748309 0.3892 2701385
-0.02259876 0.0060655782 0.38859999 2635592
-0.021687007 0.0060656881 0.38859999 2569799
-0.020700356 0.0060439417 0.3872 2701385
-0.019720228 0.0060221921 0.3858 2767178
-0.018751493 0.0060019982 0.3845 2635592
-0.017723825 0.0059599467 0.3818 2635592
-0.016770488 0.0059397449 0.38049999 2701385
-0.015768966 0.0058992463 0.3779 2767178
-0.014779609 0.0058587431 0.37529999 2635592
-0.013783895 0.0058104303 0.37219998 2701383
-0.012799232 0.0057605519 0.36899999 2701383
-0.011933038 0.0057606259 0.36899999 2701383
-0.010922853 0.0056857611 0.3642 2767176
-0.009984931 0.0056389929 0.3612 2964555
-0.0090332357 0.0055750464 0.35709998 2832969
-0.0081145344 0.0055204639 0.3536 2832969
-0.0072039994 0.0054596313 0.3497 2832969
-0.0063829375 0.0054596839 0.3497 2765890
-0.0055538989 0.005451927 0.34919998 3292234
-0.0045943311 0.0052911625 0.3389 5133146
-0.0037985609 0.0052912049 0.3389 7106936
-0.0029753046 0.0052428441 0.33579999 7301998
-0.0021704966 0.0052038478 0.33329999 6380896
-0.0013774141 0.0051648482 0.3308 5655114
-0.0005944242 0.0051117931 0.3274 5655114
0.00017261021 0.0050587351 0.324 6246479
0.00092656846 0.0050212871 0.32159999 6443858
0.0016697875 0.0049853972 0.3193 6509392
0.0024060011 0.0049573113 0.3175 6443599
0.0031516359 0.0049573272 0.3175 6443599
0.0038739536 0.0049276738 0.31559998 6180427
0.0045961267 0.0049073868 0.3143 5851462
0.0053037107 0.0048792898 0.3125 5654083
0.0060202302 0.0048652426 0.3116 5391424
0.0067238566 0.0048449473 0.31029999 5457217
0.0074309832 0.004830895 0.30939999 5392194
0.0081233336 0.004810594 0.30809999 5589573
0.0088354172 0.004804343 0.30769998 5524294
0.0095176641 0.0047840383 0.3064 4997950
0.010237232 0.0047840276 0.3064 5195329
0.010928184 0.0047715232 0.30559999 4734778
0.011596318 0.0047512106 0.30429998 6183253
0.012258338 0.0047308952 0.303 7104355
0.012952766 0.0047246297 0.3026 4999494
0.01362724 0.004712116 0.30179998 5591631
0.014316947 0.0047058458 0.30140001 7829889
0.015004762 0.0046995729 0.301 8093061
0.015690681 0.0046932972 0.30059999 7699588
0.016396526 0.0046932651 0.30059999 7896967
0.017079594 0.0046869847 0.30019999 6778234
0.01775484 0.0046791406 0.29969999 2567482
0.018458514 0.0046791015 0.29969999 2962758
0.019162167 0.0046790591 0.29969999 2699586
0.019839285 0.0046727695 0.29929999 2634306
0.020541951 0.0046727224 0.29929999 2568513
0.021216203 0.0046664281 0.29889998 2503234
0.021917881 0.0046663764 0.29889998 2503234
0.022619532 0.0046663224 0.29889998 2307138
0.023352364 0.0046725105 0.29929999 2307138
0.024054902 0.0046724514 0.29929999 2241347
0.02483185 0.0046864403 0.30019999 2241347
0.025604485 0.0046988651 0.301 2241347
0.026310917 0.0046987985 0.301 2307140
0.027089115 0.0047112177 0.30179998 2438726
0.027953934 0.0047376836 0.3035 2438726
0.028666126 0.00473761 0.3035 2504519
0.029378276 0.0047375332 0.3035 2438726
0.03009039 0.0047374545 0.3035 2307910
0.030802462 0.0047373734 0.3035 2307910
0.03137951 0.004716998 0.30219999 2438726
0.031961028 0.0046981815 0.301 2570312
0.03258029 0.0046856077 0.30019999 2570312
0.033095967 0.0046589845 0.2985 2636105
0.033614948 0.0046339207 0.2969 2767691
0.034080151 0.0046026134 0.2949 2767691
0.03450055 0.0045666224 0.29260001 2701896
0.034958217 0.0045368732 0.29069999 2965068
0.035639871 0.0045367754 0.29069999 3030861
0.036321472 0.0045366758 0.29069999 3096654
0.036417495 0.0044647874 0.2861 2965068
0.036751166 0.0044241115 0.28349999 2965068
0.037085801 0.004384995 0.28099999 2899275
0.03755641 0.0043630442 0.27959999 2767689
0.038061406 0.0043457733 0.27849999 2767176
0.038519498 0.0043238201 0.2771 2767176
0.03906991 0.0043127886 0.2764 2832969
0.039616998 0.0043017552 0.2757 2767176
0.040262982 0.0043016435 0.2757 2832969
0.040864378 0.0042968472 0.27539998 2701383
0.041449264 0.0042904909 0.27500001 3358795
0.042001586 0.0042810119 0.2744 3687760
0.042582128 0.0042746514 0.27399999 3885139
0.043066099 0.0042589298 0.273 3819346
0.04359334 0.0042478871 0.2723 3753299
0.044230953 0.0042477627 0.2723 3358541
0.04486851 0.0042476365 0.2723 2701644
0.045506001 0.0042475089 0.2723 2438472
0.046143435 0.004247379 0.2723 2570060
0.046901062 0.0042581656 0.273 2635853
0.047661901 0.0042689499 0.2737 2505037
0.048302419 0.0042688148 0.2737 2439244
0.048871346 0.004262438 0.27329999 2373964
0.049510792 0.0042622993 0.27329999 2373964
0.050223581 0.0042683962 0.2737 2177099
0.050863836 0.0042682537 0.2737 2177099
0.05150402 0.0042681098 0.2737 2308171
