# .PCD v0.7 - Point Cloud Data file format
VERSION 0.7
FIELDS x y z rgb
SIZE 4 4 4 4
TYPE F F F U
COUNT 1 1 1 1
WIDTH 1152
HEIGHT 1
VIEWPOINT 0 0 0 1 0 0 0
POINTS 1152
DATA ascii
0.081187598 0.030714367 0.33899999 16289909
0.082817525 0.0307297 0.33919999 16224116
0.084473804 0.030754043 0.33949998 16156526
0.086563393 0.030932326 0.34149998 15695975
0.088206589 0.030947514 0.34169999 15169379
0.089772388 0.030935491 0.3416 14643553
0.091336846 0.030923434 0.34149998 14118240
0.09183874 0.030558223 0.33750001 13528415
0.092579708 0.030283581 0.33449998 12086366
0.094080351 0.030262437 0.33429998 16773350
0.095578723 0.03024126 0.33409998 16777201
0.097103894 0.03022911 0.33399999 16711671
0.098657273 0.030225981 0.33399999 16711673
0.10018025 0.030213777 0.3339 16711669
0.10197607 0.030282976 0.33469999 15067602
0.10350055 0.030270716 0.3346 3421991
0.10499228 0.030249387 0.3344 2106399
0.10552588 0.029956691 0.3312 1778202
0.10709611 0.029962484 0.33129999 1647129
0.10863408 0.029959211 0.33129999 1318934
0.11020491 0.029964963 0.33139998 1450520
0.11180999 0.029979739 0.33159998 1516313
0.1142027 0.030202407 0.33409998 1516315
0.11589063 0.030235201 0.33449998 1450522
0.11849475 0.030502956 0.33750001 1647899
0.12016578 0.030526636 0.3378 1713692
0.1217311 0.030523192 0.3378 1911071
0.12344205 0.030555882 0.3382 2174756
0.12504537 0.030561451 0.33829999 1911584
0.12788433 0.03086509 0.34169999 1517340
0.14846495 0.034538664 0.38249999 1911333
0.15270883 0.035103522 0.3888 1845542
0.15458649 0.035117574 0.389 1648163
0.15646559 0.035131615 0.3892 1648163
0.15834613 0.035145655 0.38939998 1911335
0.15767831 0.03460018 0.38339999 1911586
0.15741213 0.034154084 0.37849998 2043172
0.15941308 0.034204345 0.37909999 1977379
0.15933609 0.033812538 0.3748 2372137
0.16110994 0.033817742 0.37489998 2372137
0.16284092 0.033813927 0.37489998 2503723
0.16483498 0.033864241 0.37549999 2437930
0.16647936 0.033842422 0.37529999 2503210
0.1705419 0.03430751 0.38049999 2371624
0.17401822 0.034646299 0.38429999 2174758
0.1783984 0.035156302 0.38999999 2372398
0.1827385 0.035648193 0.3955 2175272
0.18451576 0.0356353 0.39539999 2306858
0.18794128 0.035937835 0.39879999 2372651
0.18968473 0.03591596 0.39859998 2241065
0.18921588 0.03547968 0.39379999 2372651
0.19083698 0.035439901 0.39339998 2241582
0.19049539 0.035039853 0.389 2109998
0.19075564 0.034757018 0.38589999 2110000
0.19233422 0.034717426 0.38549998 2110000
0.19400969 0.034695886 0.38529998 2110000
0.19578478 0.034692403 0.38529998 2240814
0.19761103 0.034697969 0.3854 2043435
0.19943808 0.034703564 0.38549998 2373168
0.20131816 0.034718212 0.38569999 2044207
0.20319998 0.034732901 0.38589999 2110513
0.20508359 0.03474763 0.38609999 1847341
0.20696901 0.034762412 0.3863 2044720
0.20891026 0.034786236 0.38659999 2110511
0.21085425 0.034810103 0.38689998 2242097
0.21269111 0.034816034 0.38699999 2110511
0.21463974 0.034840003 0.38729998 2044718
0.21815583 0.03511589 0.39039999 2110511
0.22164419 0.035382789 0.39339998 2242097
0.22481942 0.035595741 0.39579999 1847339
0.2268144 0.035619881 0.39609998 1978925
0.22869682 0.035626099 0.3962 2307890
0.2305221 0.03562339 0.3962 2110511
0.23228887 0.035611749 0.39609998 1978925
0.23393674 0.035582215 0.39579999 1912619
0.23552242 0.035543751 0.39539999 2044205
0.23716471 0.035514358 0.3951 2044203
0.23880443 0.035485044 0.39479998 2175789
0.23788182 0.035078332 0.39029998 2044203
0.23661095 0.034626815 0.38529998 2175789
0.23807845 0.03457981 0.38479999 2109996
0.23661205 0.034110554 0.37959999 2044716
0.23603989 0.033776212 0.3759 1847337
0.23625626 0.033558778 0.37349999 2110511
0.23791631 0.033548098 0.3734 2110511
0.23745793 0.033241015 0.37 2110511
0.23903705 0.033221528 0.3698 2242097
0.2385315 0.032914653 0.3664 2110511
0.24009301 0.032895338 0.3662 2110511
0.24171913 0.03288509 0.36609998 2045488
0.2434113 0.032883909 0.36609998 1979695
0.24517097 0.032891795 0.3662 1978927
0.24706686 0.032917727 0.36649999 2176306
0.24916969 0.032970689 0.3671 2044720
0.25291875 0.033239283 0.37009999 2045488
0.25476977 0.033256486 0.37029999 1979695
0.25655395 0.033264801 0.37039998 1913902
0.25813049 0.03324626 0.37019998 1913902
0.2595655 0.033209853 0.3698 1979695
0.26163331 0.033254359 0.37029999 1913904
0.26327971 0.033245075 0.37019998 1848370
0.26499757 0.033244871 0.37019998 1914163
0.26671609 0.033244759 0.37019998 1848624
0.26850787 0.033253726 0.37029999 1848624
0.27234468 0.033514231 0.3732 2045488
0.2741529 0.033523392 0.37329999 2045488
0.27832782 0.033820014 0.3766 1913902
0.28275737 0.034143686 0.3802 2111029
0.28475174 0.034171108 0.38049999 1979445
0.28682509 0.034207612 0.3809 2176054
-0.31700748 0.041156836 0.43719998 3228994
-0.31514031 0.041176457 0.43739998 3031615
-0.31334364 0.041205611 0.4377 2965822
-0.31261188 0.041376092 0.43949997 3163201
-0.31087497 0.041414902 0.43989998 3163199
-0.30899465 0.041435 0.44009998 3163199
-0.30655518 0.041379895 0.43949997 3228479
-0.3043991 0.041362561 0.4393 3294272
-0.31295478 0.04339233 0.46079999 3161918
-0.31097689 0.043413211 0.461 2702137
-0.30906472 0.04344362 0.46129999 2965309
-0.30701727 0.043455318 0.4614 3096893
-0.30490336 0.043457702 0.4614 2833721
-0.3027899 0.043460201 0.4614 2767926
-0.30067694 0.043462813 0.4614 2767926
-0.27339253 0.040970951 0.4348 3557705
-0.26940605 0.040672448 0.43159997 3097408
-0.26544911 0.040373992 0.42839998 2571064
-0.26336682 0.040358335 0.42819998 2965822
-0.26122555 0.040333338 0.42789999 2768189
-0.25914782 0.040317848 0.42769998 2768189
-0.25731263 0.040340155 0.42789999 2636603
-0.25290966 0.039957132 0.42379999 2637373
-0.25085387 0.039941859 0.42359999 2835006
-0.24750724 0.039719202 0.42119998 2702650
-0.24505718 0.039638046 0.42029998 2768443
-0.24070641 0.039245702 0.4161 2636857
-0.23834543 0.039174069 0.41529998 2505271
-0.23616254 0.039130796 0.41479999 2833723
-0.23398428 0.039087586 0.41429999 2965309
-0.23186654 0.039053857 0.41389999 2636857
-0.22980799 0.039029639 0.4136 2768441
-0.22786233 0.039024349 0.41349998 2702648
-0.22591752 0.039019123 0.41339999 2767928
-0.22408187 0.039032839 0.41349998 2833721
-0.22229895 0.039056055 0.41369998 2965307
-0.22051407 0.039079335 0.41389999 2439478
-0.21878 0.039112113 0.41419998 2768443
-0.21693829 0.039126076 0.41429999 2702650
-0.21654883 0.039404545 0.4172 2768443
-0.21628694 0.039711472 0.42039999 2702648
-0.21752533 0.040301938 0.42659998 2636855
-0.21845405 0.040845353 0.4323 2768441
-0.21787813 0.041114908 0.43509999 2768441
-0.21772286 0.041469634 0.43879998 2768441
-0.2157145 0.041474771 0.43879998 2702648
-0.21365713 0.041470498 0.43869999 2767928
-0.21164854 0.041475713 0.43869999 2570549
-0.20949626 0.041452609 0.4384 2767930
-0.2054532 0.041051265 0.4341 3031102
-0.20351143 0.041065991 0.43419999 2636344
-0.20156837 0.041080758 0.43429998 2570551
-0.19962397 0.041095559 0.43439999 2702650
-0.1998165 0.041555081 0.43919998 2702650
-0.19789289 0.041579463 0.43939999 3097408
-0.19819589 0.042077076 0.44459999 2965820
-0.19624473 0.042101573 0.44479999 2505269
-0.19429126 0.042126104 0.44499999 2571064
-0.19233544 0.042150654 0.4452 2636857
-0.19024903 0.042146821 0.44509998 2702650
-0.18820532 0.042152472 0.44509998 2505271
-0.18611923 0.042148665 0.44499999 2505271
-0.18254438 0.041803837 0.44129997 2571064
-0.18047555 0.0418 0.44119999 2636857
-0.17695105 0.041455049 0.4375 2571064
-0.15782571 0.039715309 0.4188 2636855
-0.15425882 0.039303344 0.41439998 2702650
-0.15231273 0.039299142 0.41429999 2571064
-0.1495683 0.039086219 0.412 2571064
-0.147633 0.039081965 0.41189998 2505271
-0.1457334 0.039087184 0.41189998 2439228
-0.14386815 0.03910188 0.412 3295066
-0.14200133 0.039116561 0.41209999 5139333
-0.14043897 0.039216671 0.4131 5206671
-0.13856496 0.039231326 0.41319999 1916001
-0.13662325 0.039226979 0.4131 2837873
-0.13409482 0.039051656 0.41119999 1983849
-0.13200128 0.038999736 0.41059998 1852524
-0.12940572 0.038795784 0.4084 1590124
-0.12729822 0.038734265 0.4077 1064040
-0.12531963 0.038710698 0.40739998 1195114
-0.1232826 0.038668092 0.40689999 1520479
-0.12133905 0.038653955 0.40669999 1849444
-0.11939679 0.038639776 0.40649998 6119800
-0.11745575 0.038625557 0.40629998 13747122
-0.11520305 0.038506713 0.405 16774589
-0.11324161 0.038482886 0.40469998 16775600
-0.11175013 0.038620684 0.40609998 16776367
-0.10951462 0.038501672 0.4048 16776878
-0.10755644 0.038477708 0.40449998 16777135
-0.10562659 0.038463205 0.4043 16777135
-0.10374932 0.038467687 0.4043 16711598
-0.10098955 0.038139064 0.40079999 16711598
-0.099053144 0.038114857 0.4005 16711596
-0.097191758 0.038119148 0.4005 16317092
-0.09523458 0.038085315 0.40009999 16513699
-0.093327209 0.038070455 0.39989999 16776360
-0.09135253 0.038026977 0.3994 16577184
-0.08953879 0.038050093 0.3996 14403978
-0.087744571 0.038082674 0.39989999 6970945
-0.085925512 0.038105678 0.40009999 2106677
-0.08414609 0.038147684 0.4005 1455200
-0.082362406 0.038189638 0.40089998 799584
-0.080534272 0.038212478 0.40109998 931940
-0.078723378 0.038244795 0.4014 471905
-0.077024043 0.038334224 0.4023 931172
-0.075222388 0.038375955 0.40269998 9285337
-0.073343642 0.038379509 0.40269998 7311797
-0.072121032 0.038735658 0.4064 1258075
-0.070258588 0.038758174 0.4066 9677519
-0.068982221 0.039114278 0.41029999 2046294
-0.067147769 0.039165288 0.41079998 8430010
-0.065276407 0.039197169 0.4111 6651791
-0.063386373 0.039219443 0.4113 1649458
-0.061479066 0.039232112 0.41139999 1781031
-0.059541423 0.039225634 0.4113 1517089
-0.057478201 0.039133236 0.41029999 1845793
-0.055505134 0.03909798 0.40989998 1976866
-0.053561557 0.039081719 0.40969998 1911073
-0.051770717 0.039179858 0.41069999 1977379
-0.049241859 0.038705502 0.4057 1911586
-0.034858894 0.032407437 0.3396 2766644
-0.033317138 0.032457024 0.34009999 9738904
-0.031733103 0.032468371 0.34019998 16580603
-0.030183321 0.032517832 0.3407 16580603
-0.028578248 0.032509957 0.34059998 16580603
-0.027084779 0.032635648 0.34189999 16580603
-0.025511814 0.032675367 0.3423 16580603
-0.023927888 0.032705471 0.34259999 16776943
-0.022334429 0.032725953 0.34279999 14460052
-0.020726791 0.032727279 0.34279999 15966860
-0.019118965 0.03272853 0.34279999 16494227
-0.017505853 0.032720163 0.3427 16760990
-0.01587959 0.032683074 0.3423 16699303
-0.014281941 0.032703206 0.3425 16507051
-0.012660064 0.032665968 0.34209999 16776120
-0.011057961 0.032676402 0.34219998 16777150
-0.0094547933 0.032686763 0.3423 16776906
-0.0078597423 0.032735247 0.34279999 6577743
-0.0062434846 0.032697715 0.34239998 6184536
-0.0046390109 0.032717399 0.34259999 5920081
-0.0030281553 0.03268927 0.3423 6839118
-0.0014200449 0.032661058 0.34199998 16777195
0.00018525387 0.032623231 0.3416 16645105
0.0017873694 0.032594871 0.34129998 16052457
0.0033876989 0.032575991 0.34109998 16777199
0.0049876398 0.032566585 0.34099999 9736579
0.0065847249 0.032547552 0.34079999 5854801
0.0081847394 0.032547548 0.34079999 6119002
0.0097818775 0.03253793 0.3407 5987157
0.011381398 0.032537777 0.3407 6447708
0.012969461 0.032508902 0.34039998 6380632
0.01455467 0.03247996 0.34009999 6446938
0.016141757 0.032460492 0.33989999 6250588
0.017721688 0.032431401 0.3396 6053979
0.019298732 0.032402236 0.33929998 5857370
0.020731265 0.032153368 0.33669999 5659221
0.022344716 0.032200467 0.33719999 5787725
0.023884712 0.032142453 0.33660001 14605261
0.025434088 0.032103468 0.3362 16711667
0.027019762 0.032112159 0.33629999 16711671
0.028597735 0.032111228 0.33629999 16580089
0.030471673 0.032425318 0.3396 6315873
0.03208372 0.032443333 0.3398 6118753
0.033697478 0.032461289 0.34 6250337
0.035302557 0.032469615 0.34009999 8222318
0.03691924 0.032487426 0.34029999 16777203
0.038537607 0.03250517 0.3405 16711671
0.040204793 0.032561023 0.34109998 16711673
0.041865136 0.032607265 0.3416 16711673
0.043491773 0.0326248 0.3418 16711673
0.045476265 0.032899965 0.34469998 16711673
0.047583327 0.033241853 0.34829998 16645880
0.04934236 0.033325959 0.34919998 15658728
0.050978176 0.033324104 0.34919998 16777205
0.052598648 0.033312645 0.34909999 16579564
0.053969346 0.033148453 0.34739998 16777194
0.054939751 0.032755226 0.34329998 14996669
0.056480926 0.032714996 0.34289998 8874329
0.058018059 0.032674711 0.3425 8346961
0.059324842 0.032510355 0.34079999 8477520
0.060865667 0.03247951 0.3405 9134682
0.062403355 0.032448608 0.34019998 8871510
0.063956738 0.032427195 0.34 9003096
0.065450065 0.032377116 0.33949998 8542547
0.066958144 0.032336533 0.3391 10121064
0.068502553 0.032314964 0.3389 9264985
0.070065424 0.032302883 0.33879998 9131600
0.071627028 0.032290757 0.3387 16625567
0.0731657 0.032269046 0.33849999 16556940
0.074724235 0.032256823 0.33840001 16489602
0.076281458 0.032244548 0.33829999 16424063
0.077860385 0.032241765 0.33829999 16488573
0.079462439 0.032248467 0.33840001 16421497
0.081065021 0.032255113 0.33849999 16420470
0.082716979 0.032280773 0.33879998 16157298
0.084346473 0.032296859 0.33899999 16089965
0.08658576 0.032541528 0.3416 15432805
0.088203572 0.032547981 0.34169999 14381408
0.089769326 0.032535341 0.3416 13725535
0.091333754 0.03252266 0.34149998 13462876
0.091754004 0.032110002 0.33719999 13135454
0.092465892 0.031811647 0.33409998 14129294
0.093964651 0.031789415 0.3339 16776177
0.095461145 0.031767156 0.3337 16711671
0.096955352 0.031744864 0.3335 16711673
0.098476835 0.031732064 0.33339998 16711673
0.099966981 0.031709723 0.33319998 15330776
0.10118064 0.031601723 0.3321 10922643
0.10256927 0.031550795 0.33159998 1185044
0.10398427 0.031509377 0.3312 1777955
0.10549069 0.031496469 0.33109999 1646878
0.10702812 0.031493057 0.33109999 1581338
0.10859794 0.03149914 0.3312 1187348
0.11020153 0.031514704 0.33139998 1450522
0.1118403 0.031539761 0.3317 1450522
0.11409671 0.031735919 0.33379999 1582108
0.11578324 0.031770412 0.33419999 1450522
0.11740287 0.031785872 0.3344 1450522
0.11905953 0.03181082 0.33469999 1647901
0.12169152 0.032092333 0.33769998 1779234
0.12336548 0.032117222 0.338 1976613
0.12496789 0.032123081 0.33809999 1977379
0.12780587 0.032442439 0.34149998 1648414
0.14923716 0.03651496 0.3845 1714207
0.15270473 0.036919113 0.3888 1714207
0.15454261 0.036924396 0.38889998 1451296
0.15638107 0.036929686 0.389 1714468
0.15663418 0.036564764 0.38519999 1517089
0.15660502 0.036142983 0.38079998 1846054
0.15736656 0.035911113 0.3784 1977640
0.15755892 0.03555594 0.37469998 2043433
0.15933219 0.035561405 0.3748 2175019
0.16106305 0.035557393 0.3748 2306605
0.16279358 0.035553396 0.3748 2240812
0.16474329 0.03559684 0.37529999 2372398
0.16820545 0.035962731 0.37919998 2437930
0.17201707 0.03639495 0.3838 2371884
0.17596136 0.036846045 0.38859999 2371884
0.17962947 0.0372307 0.39269999 2306091
0.1828731 0.037520505 0.39579999 2372398
0.18595839 0.037772354 0.3985 2240812
0.1878902 0.037787236 0.3987 2372398
0.1896808 0.037773706 0.39859998 2306605
0.189164 0.037305392 0.3937 2109996
0.19083318 0.037273042 0.39339998 2044203
0.19058956 0.036871254 0.3892 2109996
0.19263029 0.036914803 0.3897 2109996
0.19233057 0.036513213 0.38549998 2109998
0.19400609 0.036490574 0.38529998 2109998
0.19578122 0.036486916 0.38529998 2175793
0.1976075 0.036492776 0.3854 2175793
0.19943461 0.036498673 0.38549998 2175793
0.20131473 0.036514089 0.38569999 2241586
0.2031966 0.036529541 0.38589999 2110000
0.20508027 0.036545042 0.38609999 2044720
0.20696571 0.036560591 0.3863 2110513
0.20890701 0.036585651 0.38659999 2044720
0.21085109 0.036610767 0.38689998 1978927
0.21274292 0.036626469 0.38709998 2044720
0.21463668 0.036642227 0.38729998 2045490
0.21815279 0.03693239 0.39039999 2045490
0.22175387 0.037232019 0.39359999 1979697
0.2247597 0.037427619 0.39569998 1913904
0.22675425 0.037453018 0.396 2044720
0.22863629 0.037459563 0.39609998 2044718
0.23046118 0.037456717 0.39609998 2044718
0.23222756 0.037444495 0.396 2044718
0.23387504 0.037413429 0.39569998 1978925
0.23551995 0.037382446 0.39539999 1847339
0.23716226 0.037351545 0.3951 1847337
0.23874161 0.037311263 0.39469999 2044716
0.23781863 0.036883522 0.39019999 2175789
0.23654737 0.036408644 0.38519999 2307375
0.23813824 0.036378123 0.3849 2241582
0.23661004 0.035875142 0.37959999 2241582
0.23591243 0.035504609 0.3757 2175789
0.23460984 0.035049144 0.37090001 2044203
0.23613057 0.035019029 0.37059999 2176302
0.2375205 0.034970101 0.37009999 2044716
0.23696707 0.034637805 0.36659998 2176304
0.23853008 0.034617417 0.3664 2242097
0.24009167 0.034597106 0.3662 2110509
0.24165188 0.034576885 0.366 2242097
0.24334367 0.034575649 0.366 2110511
0.24510293 0.034583949 0.36609998 2241584
0.246931 0.034601778 0.36629999 2044718
0.24937241 0.034704715 0.36739999 2176306
0.25271291 0.034930535 0.3698 1847857
0.25456265 0.03494864 0.37 1913904
0.25634551 0.034957387 0.37009999 1979697
0.25792077 0.034937888 0.36989999 1716525
0.25914392 0.034871273 0.36919999 1716525
0.26000792 0.034757521 0.368 1716525
0.26135927 0.034709986 0.36749998 1716525
0.26277837 0.034671992 0.3671 1651245
0.26433849 0.034652989 0.3669 1980210
0.26596999 0.034643531 0.36679998 1782831
0.27008256 0.034955297 0.37009999 1980210
0.27180302 0.034955487 0.37009999 2308921
0.27596319 0.035267461 0.3734 2045749
0.27963424 0.035513423 0.37599999 1848372
0.28467745 0.035929516 0.3804 1914167
0.28675041 0.035967913 0.38079998 1979447
-0.31925446 0.043487519 0.44029999 3097404
-0.31730086 0.043498222 0.44039997 3162684
-0.31534711 0.043509059 0.44049999 3096893
-0.3128953 0.04345087 0.43989998 3031100
-0.31101507 0.043471824 0.44009998 3031100
-0.30906355 0.043483034 0.4402 3031100
-0.30432168 0.043099217 0.43629998 3294272
-0.28150803 0.040952314 0.4145 2965822
-0.27940506 0.040924594 0.41419998 2769211
-0.27730533 0.040896978 0.41389999 2965820
-0.27527535 0.04087935 0.41369998 2900025
-0.27324772 0.040861826 0.41349998 2702646
-0.30278727 0.045597889 0.4614 3031098
-0.27537528 0.04236434 0.42859998 3032383
-0.27494457 0.042604432 0.43099999 3295557
-0.27297223 0.042607397 0.43099999 3032131
-0.27100012 0.042610466 0.43099999 3031102
-0.26927808 0.042653177 0.4314 2767930
-0.26532194 0.042340033 0.42819998 2702135
-0.26330203 0.04233348 0.42809999 2898744
-0.26116112 0.042307246 0.4278 2767928
-0.25908375 0.042290986 0.4276 2702135
-0.25532466 0.041997857 0.42459998 2833721
-0.25290602 0.041922402 0.42379999 2702648
-0.25079092 0.04189647 0.4235 2768441
-0.24762096 0.041692529 0.42139998 2571062
-0.2448784 0.041557904 0.41999999 2702648
-0.24087609 0.041205626 0.41639999 2636855
-0.23839889 0.041110665 0.4154 2636857
-0.23627241 0.041075155 0.41499999 2900029
-0.23409316 0.041029807 0.4145 3031615
-0.23197444 0.040994424 0.41409999 2702650
-0.2299149 0.040969003 0.4138 2833721
-0.22796825 0.040963445 0.41369998 2833721
-0.22602248 0.040957954 0.4136 2833721
-0.22418584 0.040972337 0.41369998 2833721
-0.22240196 0.040996682 0.41389999 2767928
-0.22061607 0.041021101 0.41409999 2965307
-0.21882823 0.04104558 0.41429999 2702648
-0.216986 0.041060217 0.41439998 2307890
-0.21664789 0.041362286 0.4174 2439476
-0.21628213 0.041664477 0.42039999 2571062
-0.21757136 0.042293884 0.4267 2505269
-0.21849951 0.042864017 0.43239999 2636855
-0.21797316 0.043156732 0.43529999 2440244
-0.217668 0.043499146 0.43869999 2374453
-0.21566007 0.043504521 0.43869999 2637625
-0.21360309 0.043500032 0.4386 2571832
-0.20961696 0.0430988 0.43449998 2636855
-0.20772278 0.043124095 0.43469998 2702648
-0.20383868 0.042732719 0.43069997 2768441
-0.20191246 0.042748123 0.43079999 2505269
-0.19998494 0.042763557 0.43089998 2571064
-0.19805607 0.042779036 0.43099999 2636857
-0.19767268 0.043132044 0.43449998 2702650
-0.19766212 0.043574538 0.43889999 2571064
-0.19538184 0.043520696 0.43829998 2636857
-0.19345956 0.043546312 0.43849999 2636855
-0.19284473 0.043869913 0.44169998 2571062
-0.19081764 0.04387575 0.44169998 2636855
-0.18861905 0.043841865 0.44129997 2702648
-0.18659277 0.043847736 0.44129997 2308660
-0.18464959 0.043873489 0.44149998 2571832
-0.18096678 0.043481838 0.4375 2440244
-0.17891543 0.043477751 0.43739998 2440246
-0.16167648 0.041656978 0.4188 2571064
-0.158261 0.041274611 0.41489998 2571064
-0.15638822 0.041290116 0.41499999 2505269
-0.15309948 0.040927496 0.4113 2439476
-0.15105738 0.040893178 0.4109 2505269
-0.14930882 0.040938478 0.4113 2505269
-0.14741261 0.04094395 0.4113 2570812
-0.1455158 0.040949412 0.4113 2110279
-0.14365329 0.040964808 0.41139999 5795980
-0.14175482 0.04097024 0.41139999 2968689
-0.13961779 0.04090593 0.41069999 1061977
-0.13772133 0.040911306 0.41069999 2641009
-0.13572505 0.040886775 0.4104 2641009
-0.13392657 0.040921994 0.41069999 1984362
-0.13183539 0.040867504 0.41009998 1721708
-0.12946396 0.040723283 0.4086 1655915
-0.12732436 0.040648758 0.40779999 1785189
-0.12531458 0.040614065 0.40739998 4145497
-0.12327759 0.040569354 0.40689999 11115652
-0.12130427 0.040544543 0.4066 14405302
-0.11933312 0.040519681 0.40629998 16774323
-0.11736415 0.040494785 0.40599999 16776367
-0.11508442 0.040360104 0.40459999 16777142
-0.11309692 0.04032512 0.40419999 16646074
-0.11089236 0.040210266 0.403 16777152
-0.10888769 0.040165178 0.4025 16777152
-0.10686047 0.040110067 0.40189999 16777156
-0.10486436 0.040064868 0.4014 16711625
-0.10287229 0.040019613 0.40089998 16711627
-0.10095987 0.040004246 0.4007 16711629
-0.09902399 0.039978843 0.40039998 16646090
-0.09711457 0.039963365 0.40019998 16515012
-0.09518265 0.039937843 0.39989999 16515004
-0.093229599 0.039902266 0.39949998 16383920
-0.091302581 0.039876621 0.39919999 16383397
-0.089489833 0.039900862 0.3994 15855762
-0.087718539 0.039945032 0.3998 16774300
-0.085900009 0.039969161 0.39999998 13548669
-0.084121101 0.04001322 0.40039998 5129272
-0.082337931 0.040057234 0.40079999 1977419
-0.080510341 0.040081196 0.40099999 931424
-0.078680359 0.040105093 0.4012 866147
-0.076905429 0.040158927 0.40169999 866147
-0.075144 0.040222697 0.4023 535131
-0.073285408 0.040236413 0.40239999 9219292
-0.072064213 0.04061006 0.40609998 6784937
-0.070185967 0.040623676 0.40619999 1652056
-0.068961948 0.041027289 0.4102 8098735
-0.067111686 0.041070797 0.41059998 2703709
-0.065241337 0.041104235 0.4109 6717336
-0.063352302 0.0411276 0.4111 3887453
-0.061446004 0.041140884 0.41119999 1649449
-0.059494898 0.041124076 0.41099998 2108965
-0.05746118 0.041047145 0.4102 2042659
-0.055488665 0.041010153 0.40979999 1779487
-0.053532563 0.040983077 0.4095 1713694
-0.05151584 0.040905878 0.40869999 2042659
-0.048972189 0.040388163 0.40349999 2043172
-0.036941025 0.034459159 0.34419999 2898744
-0.034836415 0.033980645 0.33939999 3489852
-0.033276066 0.034012638 0.33969998 16252664
-0.031703312 0.034034558 0.33989999 16580603
-0.030128421 0.034056403 0.34009999 16580603
-0.02854301 0.03406816 0.34019998 16580603
-0.027035641 0.034179993 0.34129998 16580603
-0.025465557 0.034221664 0.34169999 16711671
-0.023891501 0.034263257 0.34209999 16439492
-0.022313485 0.034304779 0.3425 15440519
-0.020707335 0.034306165 0.3425 16426639
-0.019095412 0.034297459 0.34239998 16495251
-0.01748425 0.034288675 0.3423 16762271
-0.015864577 0.034259778 0.34199998 16634278
-0.014260072 0.034260858 0.34199998 16574125
-0.012648019 0.034241833 0.3418 16776635
-0.011044166 0.034242757 0.3418 16777156
-0.0094429515 0.034253623 0.34189999 10985603
-0.0078521455 0.034314509 0.3425 5921364
-0.006239194 0.034285147 0.34219998 5658449
-0.0046343817 0.03429579 0.3423 5984845
-0.0030250105 0.034266271 0.34199998 11707791
-0.001418385 0.034236673 0.34169999 16776680
0.0001854294 0.03419698 0.34129998 6578265
0.0017860609 0.034167226 0.34099999 6051416
0.0033849061 0.034147419 0.34079999 7234912
0.0049833627 0.034137551 0.3407 14536386
0.0065808967 0.034127608 0.34059998 16048855
0.0081798965 0.034127604 0.34059998 6379601
0.0097760204 0.034117505 0.3405 5790032
0.011374528 0.034117352 0.3405 6315606
0.012965388 0.034097079 0.34029999 12100512
0.014550049 0.034066711 0.34 11836056
0.016136594 0.034046289 0.3398 6970202
0.017715983 0.034015764 0.33949998 5987157
0.019298172 0.033995192 0.33929998 5790807
0.020706007 0.033694014 0.33629999 5855830
0.02229763 0.033713371 0.33649999 6182222
0.023848457 0.033672545 0.33609998 15460568
0.025402986 0.033641666 0.33579999 16711667
0.026986709 0.033650789 0.33589998 16711669
0.028579745 0.033669852 0.33609998 10921632
0.030461632 0.034009401 0.33949998 5987163
0.03207314 0.03402831 0.33969998 6184795
0.033666532 0.034027111 0.33969998 6249300
0.03527014 0.034035861 0.3398 16052453
0.036874499 0.034044534 0.33989999 16711669
0.038490918 0.034063149 0.34009999 16711673
0.040179733 0.034141786 0.3409 16711673
0.041839071 0.034190305 0.3414 16711673
0.043464698 0.034208708 0.3416 16711673
0.045474559 0.03451743 0.34469998 16711673
0.047144383 0.034555703 0.34509999 16512486
0.048775312 0.034563866 0.3452 7957599
0.050377723 0.034551933 0.34509999 8877168
0.051948797 0.034519911 0.3448 16774886
0.053532328 0.034497846 0.34459999 16777194
0.054473579 0.034075294 0.34039998 16777189
0.056017596 0.034043118 0.34009999 16777182
0.057558503 0.034010883 0.3398 16775894
0.059252959 0.034068663 0.34039998 13214602
0.060791854 0.034036305 0.34009999 9001549
0.062345956 0.034013901 0.33989999 9067604
0.06389787 0.033991441 0.33969998 9068374
0.065351203 0.033918899 0.33899999 9132883
0.066837139 0.033866316 0.33849999 9590860
0.068398915 0.033853706 0.33840001 10179400
0.069959395 0.033841044 0.33829999 13335143
0.071518607 0.033828329 0.3382 16754571
0.073054895 0.033805557 0.338 16425090
0.074611038 0.033792742 0.33789998 16424063
0.076165892 0.033779874 0.3378 16356985
0.077742442 0.033776958 0.3378 16422008
0.07934209 0.033783998 0.33789998 16289909
0.080966249 0.033800982 0.33809999 16092530
0.082616314 0.03382792 0.33840001 15894639
0.084243886 0.033844803 0.33859998 15499627
0.086582638 0.034141492 0.3416 14513246
0.088200398 0.034148265 0.34169999 13988703
0.089766122 0.034135006 0.3416 13134938
0.090661913 0.033871919 0.33899999 12873052
0.091669127 0.033658799 0.3369 12152420
0.092351951 0.033335794 0.3337 16773352
0.09387695 0.033322468 0.33359998 16777207
0.095343404 0.033289131 0.33329999 16711673
0.09683571 0.033265758 0.33309999 16711673
0.098325767 0.033242352 0.33289999 16514544
0.09978357 0.033208944 0.3326 15461585
0.10111629 0.033135571 0.3319 3553066
0.10247304 0.033072174 0.33129999 2040606
0.10391802 0.033038702 0.331 1712160
0.10539163 0.033015195 0.3308 1646365
0.10695997 0.033021603 0.33089998 1383959
0.10856163 0.033037968 0.33109999 1121557
0.11019797 0.033064283 0.33139998 1187350
0.11190417 0.033110529 0.3319 1253141
0.1139222 0.033246517 0.33329999 1253141
0.11564104 0.033292692 0.33379999 1450520
0.1172939 0.033318896 0.33409998 1318934
0.11894915 0.033345081 0.3344 1450520
0.12049869 0.033341337 0.3344 1910820
0.12212085 0.033357516 0.3346 1648163
0.12378142 0.033383653 0.33489999 2042921
0.12570637 0.033479542 0.33589998 1977128
0.15074658 0.03869909 0.38839999 1911586
0.15266114 0.038724575 0.38869998 1845793
0.15449858 0.038730133 0.3888 1583135
0.15633656 0.038735688 0.38889998 1714721
0.15662993 0.038362797 0.38519999 1846054
0.15660079 0.037920281 0.38079998 1582882
0.1573208 0.037667062 0.37829998 1911847
0.15759686 0.037314344 0.3748 2371884
0.15932809 0.037310138 0.3748 2175021
0.16105895 0.037305932 0.3748 2175021
0.16439654 0.037669986 0.37849998 2306607
0.16732901 0.037934456 0.38119999 2240812
0.17781365 0.039065868 0.39269999 2372398
0.18136348 0.03943957 0.39649999 2240812
0.18296131 0.039385535 0.396 2240814
0.18595421 0.039629888 0.3985 2306607
0.18788603 0.039645512 0.3987 2306605
0.18967669 0.039631329 0.39859998 2240812
0.19016893 0.039348766 0.39579999 2109996
0.19194484 0.039334685 0.39569998 2109996
0.19229954 0.039032411 0.39269999 2175789
0.19267587 0.038740166 0.38979998 2109996
0.19447204 0.038736206 0.38979998 2044203
0.19621778 0.038722355 0.3897 2240812
0.19801322 0.038718484 0.3897 2175789
0.1998598 0.03872459 0.38979998 2175791
0.20175895 0.038740683 0.38999999 2109998
0.20365986 0.038756814 0.39019999 2175791
0.20550984 0.038763069 0.39029998 1912619
0.20730762 0.038759436 0.39029998 2373170
0.20905173 0.038745936 0.39019999 2241584
0.2107949 0.038732491 0.3901 2044207
0.21259165 0.038729034 0.3901 2043437
0.21444334 0.038735561 0.39019999 2372402
0.21629599 0.038742151 0.39029998 2306609
0.21971421 0.039026715 0.39319998 2306609
0.22169441 0.039053258 0.3935 2110000
0.22492704 0.039298188 0.396 1912621
0.22680849 0.03930499 0.39609998 2110000
0.22863333 0.039301943 0.39609998 2241584
0.23045829 0.03929897 0.39609998 2044205
0.23216613 0.039276231 0.39589998 2241584
0.23381318 0.03924365 0.39559999 2044718
0.23545772 0.039211154 0.3953 1978927
0.23709966 0.039178733 0.39499998 1978927
0.23867865 0.039136492 0.3946 2110513
0.23781624 0.03869763 0.39019999 2110511
0.23654512 0.03819941 0.38519999 2110511
0.23813605 0.038167395 0.3849 2110509
0.23667033 0.037649602 0.37970001 2241582
0.23584765 0.037241012 0.37559998 2175789
0.23467126 0.036782991 0.37099999 2044203
0.23619249 0.036751397 0.3707 2044716
0.237583 0.03670007 0.37019998 2176302
0.23696548 0.036341522 0.36659998 2176304
0.23852859 0.036320139 0.3664 2176304
0.24009024 0.036298838 0.3662 1913902
0.24165054 0.036277629 0.366 1979695
0.24334247 0.036276337 0.366 2044718
0.24510179 0.036285054 0.36609998 2307890
0.24686259 0.036293857 0.3662 2044718
0.24977872 0.036471244 0.368 1848111
0.25250706 0.036618978 0.36949998 2045490
0.25435546 0.036637973 0.36969998 1848111
0.25613707 0.03664716 0.3698 1979697
0.25771102 0.036626715 0.3696 1847857
0.25872231 0.03652709 0.36859998 1518894
0.25986624 0.036447395 0.3678 2044466
0.26121679 0.036397528 0.3673 1978673
0.26263505 0.036357678 0.3669 2110513
0.26426634 0.03634765 0.36679998 1913650
0.26589754 0.036337733 0.36669999 1979443
0.26745558 0.036318012 0.36649999 1716271
0.27172986 0.036665045 0.37 1650991
0.27315512 0.036625717 0.3696 1848372
0.27755234 0.036982879 0.3732 1847859
0.28250778 0.037409529 0.3775 1979445
0.28456736 0.037449811 0.3779 1847859
-0.31925365 0.045526374 0.44029999 3098176
-0.31729993 0.045537572 0.44039997 2900797
-0.31534606 0.045548905 0.44049999 3163199
-0.31303638 0.045508664 0.44009998 2966592
-0.31108448 0.04552025 0.4402 2900797
-0.30751753 0.045294128 0.43799999 2900797
-0.30250669 0.044850942 0.4337 2900027
-0.28137031 0.042851537 0.41429999 2702648
-0.27933556 0.042832848 0.41409999 2900797
-0.27723616 0.042803928 0.4138 2835004
-0.2752066 0.042785462 0.4136 2769211
-0.27317929 0.042767104 0.41339999 2769211
-0.27121988 0.042759199 0.41329998 3031613
-0.27069542 0.042979021 0.4154 2702648
-0.27151099 0.043416273 0.41959998 2900797
-0.27222419 0.043843329 0.42369998 2966590
-0.2724537 0.044198107 0.4271 2637373
-0.2706258 0.044221874 0.42729998 2439994
-0.26885918 0.044256099 0.4276 2374201
-0.26709011 0.044290427 0.42789999 2636603
-0.26525664 0.044314507 0.42809999 2768189
-0.26323706 0.044307638 0.428 2767930
-0.26115757 0.044290513 0.4278 2636855
-0.25908014 0.044273477 0.4276 2636855
-0.25526085 0.043956243 0.42449999 2768441
-0.25284255 0.043877225 0.42369998 2702648
-0.2506094 0.043829363 0.42319998 2571062
-0.24791083 0.043698709 0.4219 2900027
-0.2446412 0.043464538 0.41959998 2702648
-0.24110343 0.043178607 0.41679999 2636855
-0.24000165 0.043327846 0.41819999 2702648
-0.23626818 0.04300056 0.41499999 2571062
-0.23414533 0.042963438 0.41459998 2900029
-0.2320261 0.042926379 0.41419998 2768443
-0.22996603 0.042899758 0.41389999 2768443
-0.22801889 0.042893931 0.4138 2702396
-0.22607255 0.042888168 0.41369998 2636603
-0.22423543 0.042903218 0.4138 2768443
-0.22245099 0.042928692 0.41399997 2702650
-0.22066462 0.042954244 0.41419998 2571062
-0.21887623 0.042979863 0.41439998 2702648
-0.21703351 0.042995173 0.4145 2702648
-0.21690245 0.043352883 0.4179 2702648
-0.21812913 0.043990869 0.42399999 2308662
-0.21761715 0.044286631 0.42679998 2571834
-0.2186458 0.044904228 0.43269998 2506039
-0.2180679 0.045200277 0.4355 2505267
-0.21761292 0.045527592 0.4386 2571060
-0.21560539 0.04553321 0.4386 2702646
-0.21350011 0.045518104 0.4384 2702646
-0.20946668 0.045087676 0.43419999 2702646
-0.20556691 0.04467795 0.43019998 2702133
-0.20378576 0.04472518 0.43059999 2965305
-0.20036018 0.044408869 0.42749998 2636342
-0.19854058 0.044445757 0.4278 2702648
-0.19657995 0.044451509 0.4278 2768441
-0.1957562 0.044717092 0.4303 2768443
-0.19531447 0.045076318 0.4337 2570810
-0.19537596 0.045560397 0.43829998 2702396
-0.19349776 0.045597594 0.4386 2636857
-0.19170366 0.045655619 0.4391 2571064
-0.18994768 0.045724072 0.43969998 2571064
-0.18848485 0.045865364 0.44099998 2439478
-0.18645991 0.045871492 0.44099998 2505271
-0.18317981 0.045565538 0.43799999 2571064
-0.18009217 0.045301128 0.43539998 2571062
-0.17670068 0.044953421 0.43199998 2636342
-0.16332452 0.043530427 0.4181 2571062
-0.16004939 0.04317183 0.41459998 2571062
-0.15821718 0.04319847 0.41479999 2702648
-0.15487523 0.042808477 0.41099998 2373170
-0.1530194 0.042824645 0.4111 2504756
-0.15086795 0.042757448 0.4104 2701365
-0.14904907 0.042784005 0.41059998 2503988
-0.14715612 0.042789716 0.41059998 2505289
-0.14526255 0.042795412 0.41059998 4612991
-0.14340332 0.042811517 0.41069999 2903416
-0.14154255 0.042827606 0.41079998 1587808
-0.13951027 0.042791545 0.4104 3957639
-0.13764878 0.042807586 0.41049999 2116466
-0.1356865 0.04279232 0.41029999 1656429
-0.13379069 0.042797893 0.41029999 1656431
-0.13170139 0.042740837 0.40969998 1590638
-0.12949029 0.042642005 0.40869999 1918058
-0.12731904 0.042553548 0.40779999 3358043
-0.12530929 0.042517211 0.40739998 15854256
-0.12327234 0.042470399 0.40689999 16777144
-0.12126923 0.042433973 0.40649998 16777140
-0.11929859 0.042407945 0.40619999 16777139
-0.11735902 0.04239231 0.40599999 16777153
-0.1149656 0.04220954 0.40419999 16777175
-0.11295201 0.042162456 0.40369999 16777187
-0.11083235 0.042073533 0.40279999 16711650
-0.10882869 0.042026334 0.4023 16777177
-0.10682904 0.041979071 0.40179998 16777183
-0.10483345 0.041931748 0.40129998 16711661
-0.10284189 0.041884359 0.40079999 16711665
-0.10092998 0.041868266 0.40059999 16711665
-0.098969899 0.041831214 0.40019998 16646128
-0.097061478 0.041814998 0.39999998 16580585
-0.09513054 0.041788273 0.39969999 16449499
-0.09313181 0.041730106 0.39909998 16449482
-0.091252446 0.041724164 0.39899999 16383929
-0.089440688 0.041749533 0.39919999 16318381
-0.08769232 0.041806217 0.39969999 15922584
-0.085895799 0.041841932 0.39999998 15853195
-0.084116951 0.041888054 0.40039998 16048276
-0.082313292 0.041923653 0.4007 6444083
-0.080466159 0.041938268 0.40079999 2044484
-0.078637175 0.041963276 0.40099999 1193311
-0.076805808 0.041988228 0.4012 1062243
-0.075084135 0.042075902 0.40199998 1128036
-0.073245212 0.04210072 0.40219998 731995
-0.072024994 0.042491876 0.4059 9481684
-0.070147753 0.042506114 0.40599999 2506080
-0.06820184 0.042478401 0.4057 3492975
-0.06669955 0.042733334 0.40809998 5994126
-0.064777434 0.042726424 0.40799999 4348788
-0.062855788 0.042719431 0.40789998 5727091
-0.060904764 0.042691413 0.40759999 2897465
-0.058941606 0.04265283 0.40719998 2239787
-0.056981776 0.042614166 0.4068 1977128
-0.055025257 0.042575404 0.4064 1845540
-0.053098217 0.042557508 0.40619999 1648161
-0.05076931 0.042204246 0.40279999 1845540
-0.03634863 0.035497226 0.3387 3227195
-0.034813844 0.035551749 0.33919999 8291971
-0.03324471 0.03557476 0.33939999 16580601
-0.031673431 0.035597697 0.3396 16580603
-0.030064588 0.035578631 0.33939999 16580603
-0.028490923 0.035601422 0.3396 16580603
-0.026986433 0.035718489 0.3407 16580601
-0.025426688 0.035772584 0.34119999 16775402
-0.023855053 0.035816129 0.3416 13996675
-0.022292484 0.035880562 0.34219998 15965323
-0.020693863 0.035892498 0.3423 16689809
-0.019082956 0.035883378 0.34219998 16693143
-0.017467702 0.035863694 0.34199998 16631452
-0.015849516 0.035833444 0.34169999 16768170
-0.014246497 0.035834569 0.34169999 16575660
-0.01263593 0.035814647 0.34149998 16776120
-0.011033564 0.035815611 0.34149998 14276005
-0.0094310734 0.035816498 0.34149998 5131332
-0.0077849133 0.03561803 0.3396 5723993
-0.0061892979 0.035608266 0.33949998 5855573
-0.0045891148 0.035556465 0.33899999 8023644
-0.0029944286 0.03551507 0.33859998 16776677
-0.0014042568 0.035494577 0.33840001 11051669
0.000184042 0.035463504 0.33809999 6183768
0.0017700965 0.035442848 0.33789998 5987163
0.0033533168 0.035411615 0.33759999 6250335
0.0049410607 0.035432752 0.3378 6249048
0.0065249014 0.03542234 0.33769998 6773593
0.0081078075 0.03541185 0.33759999 10919833
0.0096897688 0.035401281 0.33750001 7105890
0.011270775 0.03539063 0.33739999 5856852
0.012850811 0.035379902 0.3373 5921364
0.014425593 0.035358604 0.3371 7627873
0.015974706 0.035284784 0.3364 16179676
0.017538058 0.035252839 0.33609998 14209479
0.019098526 0.03522082 0.33579999 7105638
0.020680724 0.035230678 0.33589998 5853267
0.022257142 0.035229973 0.33589998 9669251
0.023819271 0.035208214 0.33570001 16777203
0.02536428 0.035165403 0.3353 16711667
0.026953619 0.035185441 0.3355 16119531
0.028553203 0.035215892 0.33579999 5789780
0.030146495 0.035235777 0.336 6118749
0.031750944 0.035266068 0.33629999 5920594
0.033645451 0.035600383 0.33949998 9801089
0.035237662 0.035599057 0.33949998 16777200
0.036840543 0.035608143 0.3396 16711671
0.038444169 0.035617154 0.33969998 16711673
0.039836381 0.035437368 0.338 16645880
0.041433033 0.035446241 0.33809999 16316908
0.043132186 0.035538904 0.33899999 16711667
0.044747215 0.035558112 0.33919999 16711665
0.046691727 0.035828821 0.3418 14868685
0.048264734 0.035805944 0.3416 16776426
0.04983563 0.035782997 0.3414 8485994
0.051389307 0.035749499 0.34109998 8946028
0.052955441 0.035726428 0.3409 16777190
0.054055355 0.035399385 0.3378 16777185
0.055620078 0.035386678 0.33769998 16711640
0.057183571 0.035373911 0.33759999 16774601
0.058728412 0.035350595 0.33739999 16772287
0.060306832 0.035348181 0.33739999 13475712
0.061719861 0.035251416 0.33649999 9722956
0.06333106 0.035269834 0.33669999 9920073
0.06525223 0.035455782 0.33849999 14061689
0.066696286 0.035379801 0.3378 16758429
0.068274945 0.035377081 0.3378 16755856
0.069853254 0.035374306 0.3378 16688778
0.07141006 0.035361003 0.33769998 16556674
0.072943971 0.03533718 0.33750001 16489854
0.074497744 0.035323773 0.33739999 16489339
0.0760502 0.035310317 0.3373 16356213
0.077624366 0.035307273 0.3373 16552565
0.079221636 0.035314649 0.33739999 16355188
0.080867365 0.035342909 0.33769998 16092016
0.082515508 0.035371117 0.338 15500141
0.084141172 0.035388809 0.3382 14711140
0.085717618 0.035385516 0.3382 14054750
0.087345302 0.03540311 0.33840001 13134936
0.08892189 0.035399735 0.33840001 13004638
0.090658538 0.035459075 0.33899999 12611940
0.091611311 0.035215054 0.33669999 15972527
0.092265524 0.034866463 0.33339998 16776177
0.093789108 0.034852527 0.33329999 16711671
0.095254123 0.034817636 0.333 16711673
0.096745014 0.034793179 0.3328 16711673
0.098204114 0.034758236 0.33249998 15593948
0.099660031 0.034723274 0.33219999 10724237
0.10102131 0.034656927 0.33159998 2171417
0.10234573 0.034580115 0.33089998 1974041
0.10378882 0.03454509 0.33059999 1712411
0.10529241 0.034530938 0.33049998 1712411
0.10685933 0.034537666 0.33059999 1646618
0.10849236 0.034565251 0.33089998 1449752
0.11012776 0.034592811 0.3312 1383957
0.11190043 0.03466212 0.3319 1516313
0.11378171 0.034762722 0.33289999 1121555
0.11549866 0.034811068 0.33339998 1318934
0.11718478 0.034848962 0.33379999 1516313
0.1188386 0.03487638 0.33409998 1450520
0.12042279 0.034882907 0.33419999 1648161
0.1220075 0.034889422 0.33429998 1713956
0.12362972 0.034906361 0.33449998 1713958
0.12577733 0.035069365 0.33609998 1911337
0.1492517 0.040600728 0.3892 1582884
0.15186758 0.040815167 0.39129999 1582882
0.15367773 0.040810529 0.39129999 1780261
0.15548748 0.040805902 0.39129999 1714470
0.15629187 0.040540598 0.3888 1451300
0.15796727 0.040504716 0.38850001 1714472
0.15787122 0.040020593 0.38389999 1846056
0.15960363 0.040005643 0.3838 1977642
0.15902215 0.039417472 0.37819999 2306605
0.16072655 0.039402608 0.37809998 2371884
0.16406262 0.039783727 0.3818 2306091
0.17542705 0.041197486 0.3955 2306605
0.17846225 0.041474141 0.39819998 2306605
0.18034488 0.041479997 0.39829999 2437677
0.18396623 0.041881565 0.40219998 2503470
0.1858214 0.041877009 0.40219998 2437677
0.18767633 0.041872483 0.40219998 2372398
0.18943676 0.041847169 0.40199998 2240812
0.19114749 0.041811485 0.40169999 2240812
0.19256696 0.041713394 0.40079999 2109996
0.19412343 0.041646589 0.40019998 2175789
0.19567417 0.041579828 0.3996 2372398
0.19726861 0.041523527 0.39909998 2503470
0.19865872 0.041425668 0.39819998 2240812
0.20034249 0.041390289 0.39789999 2306605
0.20212494 0.041375764 0.3978 2306605
0.20395762 0.041371685 0.3978 2306605
0.20579022 0.041367657 0.3978 2307377
0.20762272 0.041363686 0.3978 2307377
0.20934983 0.04133898 0.3976 2109998
0.2110219 0.041303929 0.39729998 2175791
0.21258399 0.041248154 0.39679998 2175019
0.21419555 0.041202847 0.3964 2306605
0.21591239 0.041178398 0.3962 2371884
0.2177373 0.041174792 0.3962 2503470
0.21956223 0.04117126 0.3962 2569263
0.2216107 0.041209351 0.39659998 2437677
0.22338125 0.04119556 0.39649999 2371886
0.22503738 0.041161072 0.3962 2306607
0.22686261 0.041157819 0.3962 2306607
0.22863026 0.041144248 0.39609998 2306607
0.23039714 0.041130763 0.396 2043435
0.23210455 0.041106969 0.39579999 2044205
0.23375127 0.041072872 0.3955 2109998
0.23533583 0.041028474 0.3951 2044205
0.23703699 0.041004937 0.39489999 1847339
0.23861554 0.040960718 0.39449999 1978925
0.23781377 0.040511679 0.39019999 2110511
0.23654275 0.039990116 0.38519999 1781546
0.23819564 0.039966993 0.38499999 1847339
0.23673052 0.03942493 0.37979999 2242097
0.23578283 0.038976442 0.37549999 2110511
0.23466933 0.038507335 0.37099999 2110509
0.23619066 0.038474269 0.3707 2176304
0.23758124 0.038420547 0.37019998 2044718
0.23702848 0.038055584 0.36669999 1979695
0.23859213 0.038033199 0.36649999 2110511
0.24015436 0.038010914 0.36629999 1847339
0.24171521 0.037988719 0.36609998 1978925
0.24340768 0.037987377 0.36609998 1847337
0.24516755 0.037996504 0.3662 2110509
0.24692893 0.038005732 0.36629999 1978923
0.2500492 0.038222566 0.36839998 1650728
0.25236946 0.038314983 0.36929998 1913902
0.25428587 0.038345259 0.3696 1848111
0.2560671 0.038354881 0.36969998 1913904
0.25764069 0.038333483 0.36949998 1913650
0.25837088 0.038187705 0.36809999 1978673
0.2596539 0.038125023 0.36749998 1978673
0.2610743 0.038083207 0.3671 1978673
0.26256329 0.038051866 0.36679998 1847087
0.26419428 0.038041379 0.36669999 1978673
0.26582509 0.038031004 0.36659998 2110259
0.26752868 0.038031109 0.36659998 2044466
0.26938 0.038052078 0.36679998 2176052
0.27293375 0.038311757 0.36929998 1979443
0.27732968 0.038685672 0.37289998 1716271
0.28235871 0.039142709 0.37729999 1979443
0.28434217 0.039174508 0.37759998 1913650
-0.31729516 0.047273546 0.43759999 3228479
-0.31542572 0.047296032 0.43779999 2965822
-0.31348369 0.047307853 0.43789998 2900029
-0.31139922 0.047298208 0.43779999 2900799
-0.30931643 0.047288686 0.4377 2637627
-0.30505875 0.046944372 0.43449998 2637627
-0.28477299 0.04500626 0.4165 2834752
-0.28123251 0.04474888 0.41409999 2768959
-0.27919859 0.044729341 0.41389999 2571834
-0.27716699 0.044709917 0.41369998 2769213
-0.27513775 0.044690616 0.41349998 2900799
-0.27317685 0.044682227 0.41339999 2769213
-0.27128294 0.044684768 0.41339999 2637627
-0.27056244 0.044881992 0.4152 2637627
-0.26872584 0.044895574 0.41529998 2768443
-0.27055079 0.045525506 0.42109999 2636857
-0.27028176 0.045809645 0.42369998 2505271
-0.27062258 0.046202064 0.42729998 2636857
-0.26885587 0.046237808 0.4276 2636857
-0.26708674 0.046273656 0.42789999 2702650
-0.26519117 0.046287991 0.428 2900029
-0.26323345 0.046291616 0.428 2702648
-0.26121491 0.046284527 0.42789999 2571062
-0.25913689 0.046266716 0.42769998 2571062
-0.25525692 0.045924447 0.42449999 2571062
-0.25277889 0.045831058 0.42359999 2571062
-0.25054613 0.045781035 0.42309999 2505267
-0.24802424 0.045676984 0.42209998 2636855
-0.24469528 0.045421496 0.4197 2702135
-0.24300808 0.045469094 0.4201 2636855
-0.24016947 0.045300301 0.41849998 2702648
-0.23871188 0.04539137 0.41929999 2636855
-0.23656927 0.045352619 0.41889998 2505269
-0.23448631 0.045324769 0.41859999 2702648
-0.23235048 0.045286156 0.41819999 2702650
-0.23027341 0.045258444 0.4179 2439478
-0.22825363 0.045241628 0.41769999 2636857
-0.22628975 0.045235712 0.41759998 2702650
-0.22443417 0.045251537 0.41769999 2900029
-0.2226308 0.045278259 0.4179 2767928
-0.22071977 0.045283385 0.4179 2505269
-0.21886097 0.045299403 0.41799998 2506039
-0.21866195 0.045662325 0.42129999 2637625
-0.21812382 0.045960348 0.42399999 2440246
-0.21898842 0.04656205 0.42949998 2702648
-0.21879183 0.046947103 0.433 2571062
-0.21916382 0.047462422 0.4377 2571060
-0.21755761 0.047554974 0.43849999 2571060
-0.21550131 0.047549978 0.4384 2636853
-0.21339692 0.047534175 0.4382 2505267
-0.20926791 0.047062762 0.43379998 2636853
-0.20546556 0.046656374 0.42999998 2636853
-0.20212358 0.046347599 0.4271 2768439
-0.20016688 0.046353512 0.4271 2440244
-0.19848828 0.046424586 0.42769998 2571830
-0.19657405 0.04644144 0.4278 2637625
-0.19415803 0.04633889 0.42679998 2768443
-0.19413753 0.04681186 0.43109998 2702137
-0.19345313 0.047132939 0.43399999 2767930
-0.19128582 0.047095697 0.43359998 2439478
-0.19064972 0.04743867 0.43669999 2506041
-0.18868871 0.047455817 0.4368 2506041
-0.18668358 0.047462128 0.4368 2506041
-0.18463562 0.047457583 0.43669999 2506041
-0.18170986 0.047224801 0.43449998 2636855
-0.1786797 0.04695937 0.43199998 2505269
-0.16492586 0.045385797 0.41729999 2505271
-0.16175605 0.045043819 0.41409999 2571062
-0.15842219 0.044647343 0.4104 2505269
-0.15618974 0.044555418 0.4095 2570549
-0.15479399 0.044702854 0.41079998 2307375
-0.15290186 0.044708841 0.41079998 2307375
-0.15064156 0.044605978 0.40979999 2373170
-0.14878917 0.044622816 0.40989998 1979195
-0.14689943 0.044628758 0.40989998 5467782
-0.1450091 0.044634689 0.40989998 3561596
-0.14318803 0.044662375 0.41009998 1653601
-0.14136449 0.044690054 0.41029999 3364217
-0.13936856 0.044663254 0.41 2708085
-0.13757598 0.044701792 0.41029999 1919601
-0.13561465 0.044685826 0.41009998 1722222
-0.1336872 0.044680733 0.41 2116466
-0.13163146 0.04463201 0.4095 2443117
-0.1294847 0.044550538 0.40869999 4474712
-0.12725104 0.044436306 0.40759999 13879714
-0.12524228 0.044398338 0.40719998 16777142
-0.12323658 0.044360321 0.4068 16711348
-0.12123398 0.044322256 0.4064 16777156
-0.11926384 0.044295043 0.40609998 16777184
-0.11674669 0.044060521 0.4039 16777195
-0.11390799 0.043694977 0.4005 16711659
-0.1119116 0.043645725 0.39999998 15528673
-0.11008432 0.043661896 0.40009999 8160387
-0.10730875 0.043296028 0.39669999 11317419
-0.10554783 0.043333888 0.39699998 16711669
-0.10373132 0.043349881 0.3971 16711671
-0.10188761 0.043354899 0.3971 16711673
-0.10004334 0.043359868 0.3971 16711673
-0.098223202 0.043375697 0.39719999 16711673
-0.096401572 0.043391481 0.39729998 16711673
-0.09460225 0.043418132 0.39749998 16646134
-0.093033835 0.043553963 0.3987 16515046
-0.091202132 0.043569587 0.39879999 16449495
-0.089391366 0.043596078 0.39899999 16383950
-0.087687857 0.043677147 0.39969999 16318400
-0.085912876 0.043725383 0.40009999 16514988
-0.084112599 0.043762628 0.40039998 16117137
-0.082288466 0.04378888 0.40059999 16245905
-0.080421798 0.043793213 0.40059999 6706992
-0.078574203 0.043808401 0.4007 2044484
-0.076706022 0.043812588 0.4007 1127518
-0.07506144 0.043947916 0.40189999 996450
-0.073223062 0.043973841 0.4021 864864
-0.071382336 0.043999691 0.4023 4022160
-0.06959106 0.044058278 0.40279999 4874891
-0.067794658 0.044116803 0.40329999 2308701
-0.065993108 0.044175249 0.40379998 6586261
-0.064170547 0.044222698 0.40419999 14216693
-0.062297564 0.044237237 0.4043 16383999
-0.060393319 0.044229805 0.40419999 14082525
-0.058460638 0.044200409 0.4039 1846058
-0.056474291 0.04412714 0.4032 1781035
-0.054561768 0.044108506 0.403 1583654
-0.052702997 0.044133559 0.4032 1714468
-0.038021769 0.037170995 0.33949998 2503986
