# .PCD v0.7 - Point Cloud Data file format
VERSION 0.7
FIELDS x y z rgb
SIZE 4 4 4 4
TYPE F F F U
COUNT 1 1 1 1
WIDTH 1139
HEIGHT 1
VIEWPOINT 0 0 0 1 0 0 0
POINTS 1139
DATA ascii
0.094334684 0.023653949 0.34108567 14252389
0.10208642 0.021228388 0.34019998 16709869
0.12792519 0.02927717 0.3418 1780514
0.13341287 0.024483293 0.34169999 1780004
-0.033306833 0.032916527 0.34153998 10265503
-0.024621189 0.033816248 0.34200385 16111563
-0.015076462 0.033481818 0.34227082 16570792
-0.0056511802 0.032863475 0.34237891 10788747
0.0049861958 0.032573111 0.34108093 9736585
0.013287154 0.032346718 0.34037998 7433319
0.035964217 0.03184972 0.34031004 11447719
0.045323588 0.033117417 0.34398183 15790055
0.054426383 0.032787587 0.34443748 13549230
0.062209904 0.032009818 0.34038571 8740181
0.088183358 0.032540549 0.3416222 14513248
0.091335297 0.031723045 0.34149998 13790558
0.12784511 0.031653766 0.3416 1582877
-0.041507397 0.042261675 0.34209999 1648163
0.24817193 0.068072215 0.34613746 1847341
0.25460684 0.067157924 0.34556666 1716014
0.26108086 0.066571645 0.34667999 1716012
0.24790078 0.074858755 0.3485842 1978669
0.25472754 0.075784355 0.34776852 1781803
0.26151755 0.075794198 0.34832498 1650475
0.25229636 0.086603828 0.34735835 1913132
0.14348245 0.099900581 0.34955999 2372141
0.25850683 0.099654913 0.3497 2110249
0.13982949 0.10611254 0.3486 2175532
0.14500538 0.1051196 0.3487176 2175789
0.2488599 0.10213487 0.34989998 2044718
0.2536746 0.10402717 0.34866154 1847339
0.26029614 0.10215607 0.34989998 1847335
0.089591898 0.1187001 0.34219998 1911847
0.092108555 0.11805908 0.342675 1846054
0.12483367 0.11350579 0.34303331 2044205
0.13904916 0.11406069 0.3434 2176048
0.14556944 0.11389463 0.34799564 2109998
0.15002267 0.11294576 0.34989998 2109996
0.23611388 0.1177787 0.34726357 2044974
0.24530488 0.11742491 0.3472375 1979183
0.25476673 0.11747529 0.34556207 1847598
0.26087514 0.1163468 0.34769997 1782316
0.06999144 0.12878877 0.34779999 1977640
0.076974168 0.12797253 0.34568459 1846308
0.086456642 0.12549451 0.34125501 1977894
0.094970353 0.12466509 0.34243026 2043943
0.10459901 0.12713525 0.34253526 2240810
0.11231014 0.12069314 0.34369999 2175789
0.13716616 0.12643181 0.34058571 2110253
0.14465298 0.12736584 0.34472594 2175790
0.15545949 0.12676081 0.3454285 2110255
0.16397129 0.12564486 0.34722066 2110255
0.17465357 0.12717433 0.34898886 2110511
0.18480846 0.12749486 0.34783843 2242098
0.20588367 0.12726039 0.34415856 2307634
0.21352383 0.12693977 0.34666249 2176304
0.22773142 0.12871559 0.34451997 2044974
0.23286547 0.12793474 0.34678182 2045231
0.24715586 0.12763119 0.34478334 2109483
0.25286749 0.12095334 0.34296668 1978925
0.078419052 0.13281392 0.3458167 1780775
0.0850925 0.13427615 0.34439689 1977897
0.094668522 0.13452259 0.34503612 2044201
0.10545239 0.13497719 0.34549189 2175532
0.11464664 0.13549036 0.34402275 2175788
0.12412267 0.13676924 0.34396663 2110254
0.13845372 0.13089365 0.34062499 2044717
0.14473841 0.1311793 0.34111109 2044461
0.15903652 0.13398328 0.34171999 2110254
0.16557539 0.13543679 0.34601668 2110254
0.17382137 0.13467781 0.34855768 2044973
0.1828687 0.13054369 0.34895 2241585
0.20545372 0.1343219 0.34401333 2373169
0.21491206 0.13263315 0.34366471 2176303
0.22508955 0.13182984 0.34515995 2045232
0.23581584 0.13342962 0.34491178 1913391
0.24260056 0.13269481 0.34583753 1913904
-0.021723233 0.14311096 0.34921247 2109992
-0.018583665 0.14275666 0.3491714 2044199
0.0031908185 0.14845671 0.34471667 2043431
0.015413716 0.14429012 0.34235001 1845796
0.024422098 0.14691757 0.34334001 1846049
0.036488306 0.146414 0.3458842 1714721
0.044844076 0.14496848 0.34787378 1846051
0.055353224 0.14714426 0.34591004 1780513
0.062295794 0.14605331 0.34289497 1780514
0.085298456 0.14259669 0.3452 1978410
0.093518339 0.14404397 0.34735334 2241066
0.105345 0.14583752 0.34493959 2175277
0.11465473 0.14463933 0.3457323 2175277
0.12550698 0.14381436 0.3459976 2175790
0.13185506 0.14338717 0.34310001 2110254
0.17645966 0.14094898 0.34461996 2241841
0.18504961 0.14610812 0.34454542 2110255
0.19578825 0.14902224 0.34564281 2044718
0.20410444 0.14549856 0.34367943 2176304
-0.076150499 0.15992968 0.3427 2373170
-0.004418252 0.15924667 0.34432504 2175019
0.0052762995 0.15665103 0.34486669 2175272
0.014771836 0.15753497 0.34610766 1978150
0.024650041 0.15654844 0.3432875 1846308
0.036190946 0.15382005 0.34667501 1780257
0.04475553 0.15194827 0.34731665 1714464
0.05553798 0.15410393 0.34571037 1780514
0.065278158 0.15572341 0.34453931 1780516
0.074132703 0.15553017 0.34370455 1846824
0.084422633 0.15477598 0.34240869 2044199
0.095816553 0.15197255 0.34429133 2044459
0.1018066 0.15163912 0.34173334 2109996
0.18545833 0.15279478 0.34109998 2110255
0.19430551 0.15203026 0.34246498 2176046
0.20163542 0.1506321 0.34020001 2045486
-0.1129253 0.16814612 0.34875 2701619
-0.10743079 0.16840591 0.3492125 2701618
-0.08266212 0.16511324 0.34499231 2635828
-0.073213294 0.16425316 0.34478891 2372912
-0.069104746 0.16668531 0.34417999 2307632
-0.045219693 0.16816518 0.3469933 2306862
-0.03480316 0.16676538 0.34487095 2241324
-0.026004637 0.16482143 0.34368885 2175274
-0.014525115 0.16320506 0.34488696 2306600
-0.0057426179 0.1636595 0.34204513 2241066
0.0054444605 0.16368604 0.34313074 2109736
0.015497077 0.16498405 0.34442779 2043687
0.02452953 0.16675347 0.34646249 1977638
0.031628508 0.16880654 0.34850001 2240551
0.049868159 0.16865425 0.3439 1912098
0.05634965 0.16847801 0.3443875 1977890
0.065264218 0.16615449 0.34686893 1781026
0.073739707 0.16532828 0.34639198 1912616
0.08466465 0.16256866 0.34508234 2109995
0.16631363 0.16823201 0.34171665 1715753
0.17249683 0.16882659 0.34509999 2043433
-0.11290794 0.17507029 0.34841669 2570804
-0.10773823 0.1739822 0.34859166 2505267
-0.083722584 0.1703725 0.34799999 2832435
-0.075146981 0.17088439 0.34569997 2570033
-0.065721318 0.17670231 0.34327498 2372657
-0.053415667 0.17702772 0.34489998 2372910
-0.045801468 0.17541377 0.34733158 2241582
-0.035169419 0.17583756 0.34510529 2175789
-0.025217541 0.17521091 0.34344441 2109738
-0.018727619 0.17415857 0.34074998 1846566
-0.0057828925 0.17439894 0.34474283 2175275
0.0063141719 0.17505342 0.34512001 2109739
0.011428891 0.17194709 0.3425 2109739
0.026107399 0.17363484 0.34501362 2043431
0.036488801 0.17453279 0.34612501 2043689
0.04499248 0.17336378 0.34526506 1846822
0.055348512 0.17376597 0.34342128 1912360
0.065100439 0.17463061 0.34455943 1912615
0.072135523 0.1748502 0.34314999 1912617
0.16717 0.17331648 0.34168887 1913129
0.17344037 0.17266048 0.34560001 1912874
0.18198019 0.17266709 0.34639999 1847597
-0.25180468 0.1882558 0.349675 2505017
-0.24732943 0.18782932 0.34969997 2374451
-0.12225078 0.18906207 0.34817499 2898742
-0.1147603 0.1852427 0.34696254 2570290
-0.10508916 0.1855204 0.34777495 2504755
-0.098633021 0.1889293 0.34989998 2571064
-0.081979483 0.1895387 0.3479 2504498
-0.073301099 0.18647057 0.34591329 2373169
-0.069579892 0.18496732 0.34229997 2241584
-0.051232077 0.18170394 0.3425 2176045
-0.045518987 0.1825631 0.3441667 2241326
-0.036683824 0.18203431 0.34442222 2241325
0.0035304511 0.18061201 0.3486 2175791
0.066101648 0.1807563 0.34533995 1978153
0.072269522 0.18303645 0.34428748 1978665
-0.25150701 0.19117777 0.34979999 2570807
-0.24742305 0.19114776 0.34979999 2702391
-0.1240826 0.19089185 0.34883332 2767413
-0.11204645 0.19018789 0.34646666 2767156
-0.10373991 0.19095811 0.34843335 2439217
-0.094939739 0.19145659 0.34957775 2373425
-0.084372103 0.19109873 0.34784997 2242354
-0.07857018 0.19071639 0.34709999 2307890
0.1191747 -0.044738643 0.35847995 5857889
0.12459669 -0.044059467 0.35673001 3292729
0.13323011 -0.041896347 0.35605001 2832176
0.12681825 -0.037406988 0.35570627 6251876
0.13427979 -0.034637958 0.35371667 2964020
0.14229318 -0.033410016 0.35738334 2503726
0.076105326 -0.021406259 0.35979998 11306105
0.081168875 -0.021406552 0.3599 9993073
0.09795022 -0.021385461 0.3599 10650501
0.1260664 -0.021572828 0.35969996 14205885
0.13554864 -0.024832634 0.35542703 4082503
0.14233252 -0.025613641 0.35587272 2438190
0.040746253 -0.011296934 0.3599 16711673
0.059220936 -0.01380842 0.35942498 16032910
0.065358341 -0.014564707 0.35874134 13735300
0.074836962 -0.015420445 0.35774162 11897469
0.084745958 -0.015294151 0.35775432 10058352
0.095002078 -0.015288838 0.35765943 11706267
0.10480576 -0.015482111 0.35715714 14406867
0.11459102 -0.015210767 0.35648647 12356487
0.12538336 -0.015161175 0.35731283 14668231
0.13306633 -0.017209571 0.35348421 6319463
0.14338826 -0.014340429 0.35356247 2043689
-0.012162236 -0.0017081625 0.35873333 7700092
-0.0066674096 -0.002724214 0.35923335 15856881
0.0018809987 -0.001148865 0.35969999 15573138
0.014860004 -0.0019107478 0.35814545 16644302
0.023856191 -0.0018135144 0.35729998 16514543
0.037567887 -0.0015612323 0.35779998 16711413
0.044924464 -0.0051948442 0.35402432 16711673
0.055243969 -0.0051962547 0.35359114 15979970
0.064966045 -0.0057043061 0.35311079 12617590
0.075502418 -0.0066554346 0.35300827 11042420
0.085073538 -0.0064327233 0.35253441 10845298
0.094544582 -0.0065189595 0.35195765 10582383
0.10571799 -0.0071993079 0.35331428 10646379
0.1150185 -0.0053778244 0.35280859 13673113
0.12330499 -0.0060079806 0.3529391 14540756
0.13953282 -0.0027501266 0.35103333 1780516
0.14549556 -0.0042892676 0.35369232 1911589
-0.02156784 0.0089155659 0.3565 3818819
-0.014431902 0.0054648099 0.35557601 13488591
-0.0056754351 0.0047229049 0.35709995 16376276
0.0042454419 0.0045923302 0.35631999 16638652
0.014854108 0.0042932057 0.35309085 15461598
0.02454184 0.0044251699 0.35326171 12304053
0.03490502 0.0046926294 0.35348648 9803408
0.045139611 0.0044652852 0.35167947 14605781
0.05547715 0.004658882 0.35165274 15526881
0.064421885 0.0050763907 0.35274443 15256250
0.11592773 0.00052964338 0.35095 16642536
0.12084365 0.00052984979 0.35104999 15856868
0.13803752 0.0052687135 0.35089999 1846054
0.14304478 0.0051806699 0.35490671 1846055
-0.024404639 0.013533304 0.35318336 2963767
-0.013821159 0.012076078 0.35097998 15656413
-0.0060553122 0.014223697 0.35187498 16440497
0.003487499 0.012107137 0.35181999 15527377
0.018275231 0.010404981 0.35013333 7500909
0.039648581 0.010403139 0.3502 8617074
0.046205416 0.010398965 0.35012501 11184290
0.057170935 0.01320586 0.35194445 15129553
0.06466604 0.013068656 0.35378 15063748
0.070708349 0.011795625 0.35297999 16512707
0.13730378 0.012492813 0.35127139 1714468
0.14275469 0.013294651 0.35500768 1648933
-0.031934366 0.025267884 0.35109997 3030074
-0.0059786611 0.020694017 0.3502 16710859
0.22658359 0.047828864 0.3569375 2241326
0.23118843 0.048085198 0.35683331 2175022
0.22677937 0.050360721 0.35725001 2241324
0.23169838 0.050347075 0.3572 2241585
0.24894609 0.068250269 0.35119998 1912876
0.25057304 0.066399381 0.35004997 1847344
0.26153892 0.064056545 0.35055 1847340
0.24543919 0.077067629 0.35386109 2109998
0.19674455 0.082076423 0.35662302 2175790
0.20252924 0.083620541 0.35775334 2110512
0.24481972 0.080895185 0.35218886 1913132
0.25456768 0.085559919 0.35510767 1913131
0.26393527 0.085047811 0.35595 1847083
0.13907571 0.098796412 0.35479999 2241327
0.14514568 0.097760268 0.35358235 2241069
0.15583831 0.097292632 0.35483336 2175533
0.16338678 0.096950352 0.35521173 2110253
0.17073555 0.099230289 0.35929999 2110511
0.24776746 0.098935761 0.35300002 1913391
0.25606892 0.09634687 0.35328519 1847597
0.26458603 0.096517041 0.35614002 1781805
0.11744014 0.10903093 0.35413334 2043685
0.12525433 0.10723317 0.35668668 2109481
0.13675545 0.10550805 0.35486364 2175532
0.14855939 0.10002898 0.35009998 2437930
0.15516761 0.10450096 0.35260001 2241068
0.1641687 0.10548382 0.35577595 2241067
0.17064829 0.10418562 0.35916665 2241582
0.18877015 0.10404494 0.35893998 2176048
0.19400075 0.1041207 0.35852903 2241583
0.21621832 0.10665479 0.35372609 2241327
0.22543399 0.10626086 0.35341737 2241838
0.23526929 0.10564741 0.35279334 2110253
0.24512866 0.10482731 0.35162631 2044461
0.25446761 0.10738733 0.35108998 1978666
0.2642549 0.10446899 0.35283083 1847081
0.11629795 0.11170963 0.35566667 2305573
0.12543274 0.11383636 0.35676429 2240554
0.13593036 0.1130158 0.3575182 2175531
0.14295055 0.11677372 0.35658333 2109998
0.15505655 0.11474293 0.35143635 2175791
0.164729 0.11453591 0.35617033 2175790
0.17508332 0.11420309 0.35927919 2176048
0.18296252 0.11514051 0.3597143 2176047
0.19779465 0.11562409 0.35566193 2110766
0.20482175 0.11562524 0.3554866 2176303
0.21402998 0.11318012 0.35823336 2110254
0.2264553 0.11444715 0.35723701 2176304
0.23440647 0.11455618 0.35386151 2044975
0.24512541 0.11278737 0.352725 1913647
0.2542491 0.11324018 0.35126314 1782316
0.26344654 0.11371478 0.35409999 1912873
0.028811632 0.12252663 0.35979998 1846305
0.032722101 0.12614578 0.35775554 1977634
0.11933075 0.12537567 0.35707998 2241068
0.12549229 0.12199467 0.35856664 2109741
0.13201219 0.12072382 0.35819998 2175791
0.14784375 0.12423384 0.35547498 2044719
0.15457937 0.1242198 0.35328239 2110256
0.16566926 0.12196971 0.35579088 2175791
0.17413427 0.12443177 0.35452303 2110511
0.18275411 0.12634978 0.35668752 2044976
0.19582908 0.12725531 0.35326001 2111025
0.20541176 0.12523772 0.35494995 2242097
0.21500619 0.12297771 0.3545517 2176564
0.22465785 0.1234622 0.3575846 2241840
0.23426244 0.12411489 0.35381845 2110254
0.2433427 0.12607774 0.35502222 2110511
0.25328007 0.12442851 0.35550001 1913390
-0.032878757 0.13890758 0.35883999 2306605
-0.029016223 0.13867097 0.35862499 2241321
0.068510763 0.13434878 0.3545571 1780517
0.074616589 0.13459015 0.35321662 1780772
0.16770343 0.13707437 0.35103333 2242097
0.17563447 0.13679473 0.35160622 2110511
0.18478671 0.13597876 0.35230452 2241584
0.19551404 0.13553631 0.3548176 2307376
0.20210898 0.13620181 0.35280001 2307632
0.22533917 0.13156277 0.35435998 1913903
0.2341938 0.13076223 0.35486665 1979437
0.2455924 0.13230895 0.35454544 2044717
0.25187212 0.1321997 0.35639998 2240813
-0.032958612 0.14483908 0.35855621 2241070
-0.026158623 0.14418836 0.35480633 2109480
-0.015637506 0.14640307 0.35591176 1978407
-0.0059060203 0.14769439 0.35831583 1912360
0.0021007715 0.14779446 0.3531 1912360
0.035524171 0.1462322 0.35535714 1780258
0.055198103 0.14354591 0.35132998 1846307
0.060891997 0.1416094 0.35159999 2108452
0.098106153 0.14497428 0.35032138 2241066
0.10179155 0.14386584 0.35019997 2241067
0.11830461 0.14473756 0.34999999 2044205
0.12073726 0.14472473 0.34999999 2044207
0.1795294 0.14077044 0.35089999 2373170
0.18637571 0.14216496 0.35184547 2306606
0.19539864 0.14391169 0.3526946 2241580
0.20316832 0.14457098 0.3519038 2241838
-0.14382192 0.15554088 0.35700417 2570292
-0.13847026 0.15629281 0.35690713 2504756
-0.11359809 0.15527359 0.35395625 2505011
-0.1056162 0.15598106 0.35678145 2504755
-0.096828751 0.15557358 0.35894611 2504496
-0.081700847 0.15800114 0.3599 2307375
-0.075736567 0.15587932 0.35844803 2372912
-0.069567315 0.1553697 0.35749999 2175789
-0.03287923 0.15539129 0.35811248 2110252
-0.025494348 0.1552396 0.35584325 2043945
-0.01575847 0.15526538 0.35788521 2175530
-0.00548568 0.15402521 0.35666767 2175016
0.00087814732 0.15541455 0.35283747 2109479
0.027860532 0.15123576 0.35885 1714468
0.03662705 0.15895601 0.35216665 1780514
0.045482051 0.15768902 0.35299167 1714464
0.05157676 0.15788704 0.35166666 1780513
0.093902536 0.15048948 0.35295999 2044460
-0.1532073 0.16626881 0.35621819 2308147
-0.14477563 0.16438392 0.35328287 2439477
-0.13798767 0.16552477 0.35524166 2504755
-0.12312224 0.16852903 0.35646665 2570290
-0.11506087 0.16554396 0.35667711 2570547
-0.10582963 0.16610791 0.35607567 2570546
-0.096675195 0.16918287 0.35714999 2570547
-0.085276917 0.16508749 0.35503331 2570035
-0.075029746 0.16372386 0.35550833 2372912
-0.065800041 0.16840409 0.35603333 2438706
-0.054673348 0.16865124 0.35584995 2241583
-0.04473028 0.16690134 0.35449001 2372909
-0.034996912 0.16402666 0.35598892 2306862
-0.025823634 0.16267417 0.35442725 2109483
-0.015334092 0.16225749 0.35564756 2306347
-0.0055214548 0.16075227 0.35536426 2240810
0.00026995339 0.16166347 0.35452497 1978153
0.016537067 0.164244 0.35176 2109223
0.026599135 0.16457242 0.35105002 1977635
0.035053145 0.16587804 0.35446069 1977635
0.0435826 0.16429982 0.35638496 1649441
0.055932373 0.16456951 0.35428092 1649186
0.063330501 0.16539365 0.35048333 1780513
0.075734742 0.16537967 0.35054544 1912618
0.081451699 0.16530748 0.35043997 1912617
-0.18348238 0.17386115 0.35692 2505013
-0.17481144 0.17496262 0.35646248 2439475
-0.16491871 0.17506252 0.35519662 2439476
-0.15605026 0.17430201 0.35500434 2308404
-0.14489281 0.17425154 0.35439277 2439220
-0.13460885 0.17483301 0.355645 2439220
-0.12480481 0.17500713 0.35557503 2570547
-0.11560672 0.17584293 0.35212079 2636084
-0.10422113 0.17536636 0.35211813 2570549
-0.095013313 0.1733378 0.35580611 2570547
-0.085553944 0.1753726 0.35464284 2635571
-0.074024007 0.17667465 0.35256666 2438447
-0.064786829 0.17473896 0.35444409 2373425
-0.055869017 0.17438629 0.35367996 2241839
-0.0046510189 0.17729859 0.35449001 2175017
0.0032659946 0.17669642 0.35359094 2240811
0.029991671 0.17893165 0.35479999 2108712
0.036042657 0.17402336 0.35188076 1977894
0.044070236 0.17172587 0.35610715 1780771
0.058335982 0.17071113 0.35649997 1649954
0.1770881 0.17547901 0.35008001 1716267
0.18089785 0.17364316 0.35053334 1912875
-0.24424748 0.18859172 0.35273334 2242612
-0.22106256 0.18969138 0.35189998 2307379
-0.21876964 0.18981867 0.35214999 2570809
-0.17605817 0.18052045 0.35959998 2636342
-0.16511755 0.18107392 0.35599169 2504757
-0.15316911 0.18759705 0.35536876 2439475
-0.14443021 0.1851977 0.35416752 2439476
-0.13504949 0.18455207 0.35426423 2636085
-0.12587656 0.18459122 0.35423607 2570804
-0.11967262 0.18416145 0.35087997 2570805
-0.10510506 0.18150657 0.35245997 2439475
-0.094301879 0.18651216 0.35238382 2439219
-0.084798835 0.18575804 0.35427019 2504498
-0.076356471 0.1851234 0.35391465 2438705
-0.0035727769 0.18199639 0.35603333 2109993
0.0021160273 0.18096946 0.35384443 2109738
0.029989401 0.1813785 0.35479999 2043944
0.033711303 0.18234645 0.35709995 1978153
0.067128181 0.1848913 0.35076666 2044716
0.07126601 0.18586448 0.3511 1781542
-0.2541039 0.19130607 0.34999999 2373682
-0.24232684 0.19197808 0.35377777 2308148
-0.23560169 0.194272 0.35657859 2439475
-0.22442934 0.19178954 0.3535063 2570549
-0.21776628 0.19196856 0.35361668 2635830
-0.15405396 0.19226798 0.35296997 2505269
-0.14462626 0.19135685 0.35183161 2439733
-0.13524982 0.19230016 0.35347784 2570550
-0.12807769 0.19176093 0.35285711 2767671
-0.093286939 0.19067866 0.35010001 2307890
-0.087362312 0.19072926 0.35013333 2307890
0.06645193 -0.072207883 0.36742499 3160890
0.074564613 -0.07109642 0.36758 2898231
0.06735421 -0.068611868 0.36625713 4475982
0.075027101 -0.067024037 0.36804545 4936787
0.084942654 -0.064571954 0.36688083 3884355
0.094466999 -0.061245784 0.36786252 2964022
0.10138654 -0.060024574 0.36970001 2964021
0.087607883 -0.059022546 0.36751997 14014933
0.093335189 -0.057781134 0.36902499 11515315
0.10508467 -0.054915477 0.36820358 6384489
0.11397821 -0.052309498 0.36504444 2963511
0.1226323 -0.051326353 0.36485997 2701359
0.10607492 -0.044975393 0.36905766 15920098
0.1146002 -0.044734187 0.36516905 12896710
0.12519065 -0.043394357 0.36149999 9608087
0.13575584 -0.043272294 0.36059999 2766897
0.047852259 -0.030664191 0.36925 16711675
0.052134607 -0.030633697 0.36893335 16711675
0.069360137 -0.030593866 0.3687 14460826
0.075934082 -0.03246991 0.36718333 13608856
0.085166238 -0.034015574 0.36670318 15050392
0.09510915 -0.034198705 0.36661249 14325899
0.10516249 -0.034761306 0.36577368 11895419
0.11539961 -0.03446715 0.36487502 13546922
0.12436842 -0.03444602 0.36292902 15856362
0.13019872 -0.031555563 0.36129999 16580603
0.14328699 -0.036514819 0.36059999 2504237
-0.001535104 -0.020259725 0.36899999 2766392
0.0058572548 -0.02369169 0.36611664 13685969
0.014061119 -0.024453184 0.36727777 15128272
0.024491627 -0.022551281 0.36816996 12092282
0.033951659 -0.020235585 0.36864996 16711415
0.047174294 -0.023821402 0.36888662 16711673
0.054272648 -0.024396388 0.36745158 16578282
0.064945519 -0.025071334 0.36529312 15182488
0.07498239 -0.025567316 0.36285338 11635328
0.085535146 -0.024813456 0.36128518 11832708
0.094820991 -0.024980363 0.36123571 13277069
0.10485379 -0.024942007 0.36181724 14268602
0.11470994 -0.024852468 0.36157328 12562611
0.12498211 -0.026089065 0.36122411 14075067
0.13160557 -0.02769658 0.36054999 14278362
0.1474133 -0.028237296 0.36249998 2569519
-0.0037986063 -0.01369656 0.36358663 9015438
0.0042451802 -0.015140935 0.36309367 15789030
0.014874756 -0.015410567 0.36276764 14719883
0.024933929 -0.014830413 0.36326334 16235932
0.03516452 -0.01483501 0.36329001 16711151
0.045146268 -0.014797681 0.36398458 16711673
0.054963745 -0.015630061 0.36481562 16308164
0.063672125 -0.019266814 0.36015716 14918030
0.089591779 -0.019714726 0.35999998 10849411
-0.012134098 -0.0045979675 0.36467999 2963767
-0.0042356239 -0.0071902373 0.36093888 14541277
0.0046624164 -0.0057864487 0.36102125 15909298
0.014426755 -0.006921547 0.36078796 16435621
0.025034823 -0.0067669176 0.36096537 16710359
0.0345608 -0.0058700247 0.36086875 16580084
-0.02012415 0.0073235612 0.36059999 3095098
-0.016834298 0.0022448574 0.36263332 3226684
0.14811066 0.0013849294 0.36004999 1714725
0.23797974 0.036363784 0.36685997 2110511
0.24427852 0.035311189 0.36695591 2044718
0.25625041 0.037249077 0.36897999 1847855
0.26442507 0.037365589 0.36691362 1913392
0.27290913 0.03830722 0.36926666 1979443
0.22656478 0.046832841 0.3639071 2241326
0.23463058 0.044369187 0.36395454 2110000
0.24479908 0.045584727 0.36652181 1978927
0.25559592 0.044645406 0.36802977 2044719
0.26450261 0.045151584 0.367125 1912880
0.27138892 0.044551227 0.3682 1847602
0.20374312 0.058986064 0.36927497 2110511
0.2256725 0.051434148 0.36479998 2241324
0.23287438 0.052809343 0.36649999 2109998
0.24512103 0.051599342 0.36614001 2176306
0.25499475 0.053830095 0.36698788 1782065
0.26443321 0.055167168 0.36568934 1781808
0.27130622 0.055311635 0.36825001 1650478
0.19919641 0.063175574 0.36654285 2175790
0.20403717 0.06238221 0.36457726 2110254
0.21198927 0.062070519 0.36735711 2044720
0.26656604 0.063768409 0.36452499 1716268
0.27183184 0.062651418 0.3678 1913134
0.19812489 0.078668132 0.36501998 2110256
0.20438194 0.07893347 0.36467856 2044976
0.21540053 0.078866705 0.36774999 2176306
0.22493316 0.078734584 0.36749226 1978926
0.23147959 0.078534633 0.36874998 1913903
0.2471979 0.07818725 0.36325997 2175534
0.25214228 0.07624907 0.36611667 2175791
0.19587009 0.085334972 0.36500356 2241583
0.20745139 0.086735711 0.36135 2373168
0.21463585 0.083836116 0.36454284 2176047
0.22435388 0.083834521 0.36511424 2176304
0.23411915 0.083637588 0.36774614 2241841
0.24342854 0.08216393 0.36443001 2175790
0.25547907 0.086790808 0.36194283 2044459
0.26554495 0.086782739 0.36124998 1912874
0.27073181 0.089629032 0.3617 2110249
-0.091801345 0.097869076 0.36874998 2244448
-0.086112618 0.097938612 0.36924446 2311788
-0.023957627 0.0921975 0.36899999 2306342
0.14457184 0.096640714 0.36562273 2241067
0.15433618 0.095534049 0.36436874 2306860
0.16540143 0.095299192 0.36488748 2109995
0.17410284 0.098342098 0.36634997 2110255
0.18838328 0.097485282 0.36843637 2241325
0.19505773 0.095907189 0.367614 2175790
0.20447485 0.094982356 0.36510712 2241840
0.21343911 0.093584336 0.36442503 2373426
0.25853595 0.095360532 0.364425 1978668
0.27141666 0.094437435 0.36079997 1781550
-0.10198049 0.10773508 0.36931998 4548749
-0.094373174 0.10505746 0.36739996 4154247
-0.084744394 0.10455185 0.36802784 3233662
-0.076740548 0.10592774 0.36928669 1850202
-0.0032186736 0.10759673 0.3687 1977377
0.12820101 0.10641766 0.366 2044203
0.13546576 0.10493688 0.36438569 2044204
0.17523348 0.1056336 0.36421764 2241325
0.1864367 0.10432237 0.36641818 2110255
0.19482674 0.10711921 0.360975 2241584
0.20572333 0.10521314 0.36608496 2241839
0.21325144 0.10719258 0.36598501 2307634
0.22350127 0.10428368 0.36009997 2241582
-0.14157143 0.11756029 0.3691 2176047
-0.13463511 0.1156404 0.36925185 1781287
-0.12517785 0.1161399 0.36840418 1912616
-0.11567513 0.11573695 0.36794814 2439226
-0.10453811 0.11603795 0.36690602 2177091
-0.094629347 0.11493329 0.3659595 2309192
-0.085029393 0.11372496 0.36732757 3096902
-0.078713089 0.11139691 0.36794999 6583154
0.015222706 0.11752672 0.36321667 2240293
0.11818913 0.11690174 0.36152226 2109225
0.1218387 0.11775037 0.36076665 1978154
0.17535304 0.11475483 0.36212 2306861
0.18512291 0.11262872 0.36415005 2241584
0.19460109 0.11508151 0.36338928 2176047
0.20371546 0.11120739 0.36344999 2241840
0.21523093 0.11512966 0.36412728 2176302
0.22413687 0.11794781 0.36228335 2045230
-0.14337695 0.12127592 0.3682 2176305
-0.13494885 0.1213792 0.36832997 2110254
-0.12496171 0.12207089 0.3671 1781287
-0.11500749 0.12301966 0.36720002 1781031
-0.1053112 0.12403679 0.36716112 1780775
-0.096197322 0.12263647 0.36688185 1911848
-0.089083925 0.1209624 0.3687 1977642
-0.034770425 0.12888581 0.36840913 2109739
-0.028985597 0.12880608 0.36834997 1582872
0.008237836 0.12665629 0.36689997 1912098
0.014809921 0.12544832 0.36378568 1912357
0.024800528 0.12649272 0.36551306 1977893
0.030545117 0.1269386 0.36049998 2109221
0.1182245 0.12114996 0.36170003 1912873
0.12573761 0.12512441 0.36369199 2109996
0.13378225 0.12654833 0.36449996 2109995
0.15481152 0.12663494 0.36119998 2110255
0.17641959 0.12272196 0.36286667 2306859
0.18542251 0.12382147 0.36348125 2307115
0.19573714 0.12293152 0.36775002 2110511
0.20327754 0.12715165 0.36296248 2373425
0.21890827 0.12002964 0.36219999 2044718
0.22701332 0.12592897 0.3610875 2044720
0.232812 0.12775873 0.36032221 2110257
0.24978006 0.12787382 0.36059999 1913902
0.2515322 0.12791269 0.36069998 1979695
-0.11801505 0.13959591 0.3689 2307377
-0.10081496 0.13778722 0.36829996 1913131
-0.097464763 0.13789342 0.3685222 2110253
-0.061252069 0.13740201 0.36663333 2306861
-0.054564953 0.13466893 0.36515337 2306859
-0.045166288 0.1352776 0.36756942 2175532
-0.034858242 0.13509105 0.36615524 2241068
-0.028087119 0.1353683 0.36587998 1845795
0.0071303397 0.13119784 0.36868 1846564
0.01609432 0.13483702 0.36642107 1977893
0.024795072 0.13511747 0.36423901 1977892
0.034532238 0.13564235 0.3620548 1977378
0.043446954 0.13702974 0.3630062 1911583
0.12687451 0.13151903 0.36502498 2044454
0.18881804 0.13026057 0.3624 1848111
0.1946348 0.13164371 0.36864996 2242355
0.20235261 0.1305396 0.36565 2438961
0.22893015 0.13127801 0.3608 1979697
0.23215431 0.13120556 0.36059999 2110512
0.25214851 0.13326372 0.36156663 2503729
-0.14412272 0.1476537 0.36676472 2570548
-0.13448612 0.14737915 0.36530414 2373682
-0.12763692 0.14697179 0.36677498 2439477
-0.11227756 0.14825846 0.36706665 2438448
-0.10459661 0.14818431 0.36640832 2438705
-0.097199149 0.14855893 0.36639997 2438703
-0.055389386 0.14112656 0.36743331 2372396
-0.043569099 0.14339006 0.36874998 2306349
-0.037710909 0.14526251 0.36389229 2306862
-0.024098091 0.1421598 0.36652499 2043685
-0.012737943 0.145385 0.36362222 2043687
-0.0054083741 0.14470346 0.36428568 1977636
0.0017504992 0.14753702 0.36402503 1912103
0.018287599 0.14323689 0.36807498 1977125
0.024926031 0.14275943 0.3646833 2174245
0.035408895 0.14405489 0.36415499 1911329
0.04334965 0.14264251 0.36233339 1846049
-0.18345265 0.15762234 0.36924997 2504755
-0.17503363 0.15609714 0.36530867 2636085
-0.16582021 0.15635346 0.36559996 2570547
-0.15496695 0.15564303 0.36526874 2636084
-0.14630418 0.15203831 0.36455551 2504500
-0.13624792 0.15340528 0.36364499 2504754
-0.12459356 0.15540729 0.367275 2505011
-0.11269975 0.15210932 0.36652726 2504755
-0.10521672 0.15195008 0.36536428 2504754
-0.094283238 0.15414007 0.36494064 2438959
-0.08509893 0.15564191 0.36428437 2241839
-0.074478723 0.15471931 0.36356002 2307376
-0.068698451 0.15840678 0.36523998 2438448
-0.051360324 0.15673998 0.3617222 2372653
-0.044203721 0.15651543 0.36358622 2241325
-0.037356768 0.15457654 0.36302501 2109996
0.0036940465 0.151621 0.3678 1977640
0.025903821 0.15220773 0.36651111 1845798
0.035423782 0.15204932 0.36701819 1911587
-0.26301995 0.16761354 0.3670111 2374455
-0.25568387 0.16899085 0.36741176 2505014
-0.24912544 0.16996667 0.36565 2635829
-0.18341427 0.16106394 0.36834997 2702134
-0.17476682 0.16503921 0.36829197 2439476
-0.16442631 0.16517685 0.36668667 2439477
-0.15712501 0.16402796 0.36332306 2439220
-0.13494368 0.16613024 0.3652156 2570290
-0.12516753 0.16601941 0.3645615 2505011
-0.10289665 0.16587541 0.36406311 2570546
-0.093688086 0.16473295 0.36681539 2439218
-0.08492022 0.16382557 0.36264446 2438704
-0.073619969 0.16507025 0.36267367 2307631
-0.065098174 0.16614179 0.36605 2307632
-0.055085298 0.16540369 0.36432779 2307372
-0.044705 0.163984 0.36251113 2241582
-0.038141571 0.16282588 0.36201999 2307631
-0.012365529 0.16080165 0.36180001 2371881
-0.0073185922 0.16094373 0.36210001 2371880
0.047079068 0.16750582 0.36088571 1649443
0.051581055 0.16806793 0.36134997 1583653
-0.26360539 0.17484729 0.36684999 2308406
-0.2542685 0.17473294 0.36409616 2505269
-0.24818601 0.17585671 0.36517391 2439218
-0.19341236 0.17462781 0.36652499 2570550
-0.18529618 0.17292202 0.36486316 2570550
-0.17494474 0.17246746 0.36621201 2374197
-0.16575727 0.17190288 0.36340588 2308404
-0.1524127 0.17940098 0.360475 2374198
-0.13366997 0.17169169 0.36452857 2701619
-0.12797585 0.17238507 0.36499998 2570032
-0.10064919 0.17015417 0.36849999 2636340
-0.096416049 0.17123124 0.36609 2635828
0.047851808 0.1726145 0.36315712 1583650
0.054500766 0.17410049 0.36485621 1583905
-0.26327381 0.18506853 0.36725265 2438708
-0.25504908 0.18577015 0.3655107 2439479
-0.24692395 0.18590389 0.36514995 2570293
-0.18077452 0.18023907 0.3624 2307888
-0.16197646 0.18674387 0.3643125 2570548
-0.15537955 0.185627 0.36409998 2373683
-0.10298648 0.18613002 0.36380771 2570292
-0.094912253 0.18455981 0.363895 2570034
-0.088998139 0.18399571 0.36142501 2569778
-0.0013799448 0.18330622 0.36019999 2175272
-0.26324823 0.19307463 0.36739996 2702393
-0.25702107 0.19222192 0.3658444 2308406
-0.24481602 0.19306169 0.36596498 2439221
-0.23577213 0.19432618 0.36268568 2373685
-0.22270969 0.19538197 0.36311999 2505527
-0.21522413 0.19767284 0.36482081 2570551
-0.20623885 0.19696757 0.3646 2439222
-0.16158846 0.19072379 0.36629999 2308661
-0.10277784 0.19008386 0.36446667 2570035
0.057409126 -0.073414914 0.37571108 8028800
0.063260406 -0.074110419 0.37316152 4344906
0.073142797 -0.07330706 0.37089998 2832437
0.081292368 -0.070988171 0.3725 2832437
0.05791663 -0.068734594 0.37889999 16580601
0.065339476 -0.067145415 0.37512499 15988466
0.074844517 -0.063083462 0.37609997 16514808
0.083444461 -0.062295344 0.37260002 14607070
0.095360816 -0.064496361 0.37259999 2898224
0.10512176 -0.062203288 0.37593332 2766640
0.1103639 -0.06067932 0.3739 2766644
0.036823019 -0.052548204 0.37820911 14207431
0.043765534 -0.05332135 0.3790071 11437958
0.066999726 -0.052640989 0.37910831 10193543
0.075256124 -0.05532166 0.37889701 11840676
0.084843002 -0.055241395 0.37765875 14670546
0.09516301 -0.053277723 0.37421426 15659240
0.10072954 -0.054078043 0.37037498 12962502
0.11516158 -0.056449257 0.37143999 2701361
0.017304339 -0.043349523 0.37893334 9344146
0.024254426 -0.042475801 0.3795 16053231
0.03528785 -0.044315256 0.37797499 12229529
0.044031475 -0.044321384 0.37768075 14270395
0.056548759 -0.042909957 0.37854004 16448244
0.064741433 -0.044561584 0.37710273 14735572
0.075154975 -0.045327459 0.37625667 11902107
0.085168444 -0.044996556 0.37464479 11633790
0.09529686 -0.045148946 0.37288126 12557459
0.10148382 -0.046129864 0.37052998 15590104
0.0078054667 -0.032251026 0.37399998 5134168
0.015124921 -0.034597881 0.37393329 14672864
0.025051828 -0.034559473 0.37498456 12625314
0.034611791 -0.034748714 0.37436897 14207172
0.044598199 -0.034746435 0.3730714 16711673
0.055192858 -0.034963835 0.37491304 16711673
0.064958997 -0.034727685 0.37519035 16446955
0.074186943 -0.037669156 0.37389469 16117476
0.084139176 -0.039267663 0.37196663 12553093
0.095643423 -0.039385062 0.37056664 11631733
0.0028259163 -0.026573874 0.37239999 3226424
0.017966088 -0.028384853 0.37095997 14338757
0.02642699 -0.027224347 0.37088749 10845562
0.035231542 -0.02543308 0.37162691 16645366
0.042693548 -0.025319699 0.37205711 16711673
0.058533631 -0.029069521 0.37114999 16711674
0.060950886 -0.028976599 0.37 16776680
0.15803999 0.0067097936 0.37575001 1714723
0.15669246 0.025298486 0.3781333 1977383
0.1657685 0.028922807 0.37960002 2307114
0.2468282 0.02856897 0.37646666 1979696
0.25349945 0.028630581 0.377325 2110511
0.1584831 0.035762392 0.37690908 2108968
0.1636214 0.033622652 0.37650952 2372139
0.23663902 0.035651594 0.37413916 2110253
0.24464576 0.030700538 0.37502855 2044718
0.25496206 0.032432619 0.372475 1848110
0.26474977 0.032560445 0.37317273 1913904
0.27475524 0.034455389 0.37412143 1979441
0.28344399 0.03829414 0.37757498 1913651
-0.054973062 0.048694231 0.37989998 16187389
0.22714108 0.047837287 0.37533334 2110252
0.23450987 0.042017709 0.3732 2044717
0.27629447 0.045767132 0.37237498 1781808
0.28277794 0.045203093 0.37668335 1847600
-0.054647781 0.054778069 0.37770995 9016741
0.20498779 0.058717165 0.37485555 2110512
0.21548814 0.05879898 0.37422726 1848112
0.22480662 0.055547662 0.37359503 2110255
0.23603874 0.05743783 0.3750923 1978924
0.24537659 0.056729395 0.37300667 2044462
0.25431818 0.058998875 0.37144285 1847853
0.26110214 0.059330434 0.37199998 1781548
0.27522656 0.053492587 0.37255001 1716012
0.28262198 0.054121941 0.37697142 1782061
0.14667536 0.069247559 0.37908 2043172
0.15163776 0.068801723 0.37964997 2437418
0.18505944 0.069597542 0.37989998 2043947
0.19941022 0.063509852 0.37558332 2175532
0.20106524 0.065504901 0.37706664 2175531
0.21643926 0.063561238 0.37111667 2241329
0.22458765 0.062713854 0.37537998 2110256
0.23630011 0.062255543 0.37730834 1978667
0.24508502 0.064023994 0.37456778 1978926
0.25312993 0.064636625 0.37510833 1913647
0.26622635 0.062792197 0.37412998 1782317
0.27326968 0.062520579 0.37297499 1847086
0.28207004 0.060115587 0.37689999 1978675
-0.17463224 0.078108221 0.37478 2636856
-0.16963315 0.079086035 0.37515 2702648
-0.073463529 0.078796282 0.37975001 11643765
0.14570166 0.073318899 0.37619996 2174758
0.15515932 0.074184507 0.37759131 2306345
0.16536506 0.074801423 0.37900665 2372395
0.17554398 0.075323693 0.37806287 2241068
0.18554309 0.075487591 0.37729448 2241325
0.19439478 0.075130023 0.37468183 2306861
0.20374177 0.07717184 0.37143335 2175792
0.21150962 0.078216836 0.37105 2175793
0.23610117 0.078352474 0.37612501 2044975
0.24578211 0.079290695 0.37557778 1978924
0.25629982 0.075615294 0.3756769 2109996
0.26192528 0.072858512 0.37944999 2110254
-0.17515418 0.081738144 0.37510002 2636597
-0.16964623 0.080837667 0.37519997 2702131
-0.11403678 0.088667497 0.37960002 16711671
-0.10456363 0.087911062 0.37937859 12962500
-0.094414636 0.086400025 0.37879562 12041657
-0.08478304 0.087259181 0.37781426 15527361
-0.074941665 0.084952369 0.37905139 7634542
-0.066747226 0.08596769 0.37917221 3693701
-0.0315836 0.08902704 0.3775 2240816
0.1584159 0.084583461 0.37924162 2240812
0.16453779 0.084315516 0.37882259 2240813
0.17550564 0.083344556 0.37865832 2240812
0.18514399 0.084544532 0.37353158 2175533
0.19297531 0.083680898 0.37172383 2307119
0.21857181 0.086564973 0.37 2045490
0.22266981 0.088890709 0.37257499 2242097
0.235484 0.086958766 0.37059999 2176305
0.24328786 0.08371982 0.37321672 2176046
0.25149083 0.088773295 0.37965 2110251
-0.16033508 0.099537268 0.37989998 2176304
-0.15411247 0.096086092 0.37879089 2242096
-0.14489229 0.095293611 0.37800929 3953248
-0.13483959 0.096635453 0.37895599 5796755
-0.12468212 0.095252901 0.37890691 10921633
-0.1149742 0.095018171 0.37785992 16053194
-0.10491745 0.094451703 0.37644517 16316626
-0.095463015 0.094451807 0.37461248 14540468
-0.084673114 0.094113275 0.37147692 7700085
-0.075164825 0.094944447 0.37443954 3298689
-0.066615082 0.094974779 0.37732613 2311533
-0.031591885 0.093481861 0.37772498 2240812
-0.025894944 0.0957008 0.37485549 2175017
-0.019161275 0.099395201 0.37669998 2108965
0.13949747 0.097596712 0.37806666 2175272
0.14451219 0.095480859 0.37558237 2306858
0.15619852 0.093336694 0.3758882 2306604
0.16395585 0.092411339 0.37619999 2241070
0.1759017 0.097409956 0.37342995 2241580
0.18491665 0.0943022 0.37275156 2175277
0.19124074 0.090093605 0.37 2241582
0.21929193 0.093760304 0.37124997 2307119
0.2253959 0.093327858 0.37401766 2373169
0.23425689 0.093429297 0.37628001 2307121
0.24613923 0.094916776 0.37795451 2176046
0.25392348 0.095277727 0.37678999 2110254
0.262604 0.096623003 0.37335238 1978924
-0.15367234 0.10396077 0.37668571 2307375
-0.14496569 0.10487821 0.37506759 2307376
-0.13522039 0.10537763 0.37515712 5072243
-0.12515189 0.10571081 0.37562928 5534348
-0.11539333 0.10556272 0.37495276 3429235
-0.1058333 0.10374664 0.37395668 4217202
-0.097738363 0.10126898 0.37296668 3097957
-0.073467664 0.10455497 0.37194091 2639454
-0.067990862 0.10324678 0.37608463 3886423
-0.011251165 0.10936907 0.37782499 1846305
-0.0075190463 0.10743924 0.37412855 1846048
0.13879216 0.10460626 0.37568748 2044204
0.14096206 0.10166087 0.3758333 2109998
0.18393837 0.10607002 0.37041426 2109998
0.2169376 0.10464752 0.37314999 2570805
0.23572104 0.10605974 0.37836668 2109996
0.24713421 0.10129889 0.37704995 2110254
0.25586218 0.10216194 0.37702942 2110252
0.2623516 0.10211112 0.37592861 1913388
-0.15352997 0.11330681 0.37755999 2241840
-0.14591525 0.11449251 0.37243602 2176303
-0.13550209 0.11113264 0.37030002 1584166
-0.12527132 0.11166745 0.37075555 3163724
-0.11367678 0.1121143 0.37179998 3561593
-0.10732403 0.11174521 0.37251109 1721451
-0.08312235 0.11882076 0.37256667 1582881
-0.074587375 0.11522641 0.37504813 1911589
-0.064548671 0.11838835 0.37775835 1780770
-0.054836135 0.11758611 0.37812665 2109737
-0.048672691 0.11733047 0.37947997 2175530
-0.014485434 0.11513306 0.37773997 1911842
-0.0053464375 0.11504669 0.37649125 1911585
0.005811899 0.11297719 0.37789232 1977377
0.024516424 0.11859816 0.37097999 2174244
-0.15265706 0.12466241 0.37598461 2242098
-0.14530732 0.12643199 0.37403634 2176305
-0.13593188 0.1265249 0.37342995 2110511
-0.12536316 0.12789196 0.37189996 1912361
-0.11570513 0.12874882 0.37033334 1715495
-0.10456831 0.12895165 0.37233332 1912098
-0.093907371 0.12682222 0.37447 1977382
-0.08537177 0.12252534 0.37500766 1714469
-0.072931819 0.12252803 0.37849092 1780517
-0.064777933 0.12464832 0.37633705 2043690
-0.055248678 0.12463747 0.37673715 2241323
-0.045555811 0.12752511 0.37735716 2241068
-0.034865938 0.12636098 0.37408945 2109737
-0.028144795 0.12708129 0.37536997 1648931
-0.010405736 0.1214106 0.37979999 1713954
-0.0049013468 0.1224618 0.37975997 1911845
0.0044225166 0.12570265 0.3762154 1911842
0.014963206 0.12196525 0.37073335 2174758
0.025376935 0.12202522 0.3709389 2240551
0.034331311 0.12451753 0.37100002 2043429
0.042984199 0.12860812 0.37100002 1977636
0.19651282 0.12682277 0.37169287 2110509
0.20220217 0.12788938 0.37220001 2307634
-0.25470588 0.1398979 0.3714 2373430
-0.24285398 0.13248526 0.37830001 2571063
-0.23462512 0.13470259 0.37507349 2439734
-0.2037828 0.13659014 0.37712997 2505526
-0.1958912 0.13551904 0.37431997 2505270
-0.14404927 0.13825814 0.37460831 2373425
-0.13680214 0.13646716 0.37474442 2372913
-0.12397873 0.1352623 0.37538943 2044203
-0.11441112 0.13481104 0.37137949 1912619
-0.10501121 0.13460606 0.37252185 1781031
-0.097690076 0.13487194 0.37625328 1846566
-0.072000101 0.13821188 0.37824997 2175790
-0.064723887 0.1348794 0.37411293 2306862
-0.05513794 0.13169923 0.37347332 2306860
-0.045195475 0.13046576 0.37298888 2175531
-0.025658131 0.13476962 0.37440553 1912100
-0.0039238785 0.13516396 0.37663338 2043173
0.003552733 0.13539001 0.37498516 1977636
0.013368527 0.13783683 0.3712 2043171
0.038359124 0.13234051 0.37099996 1977635
0.044748012 0.13358115 0.37099999 1846049
0.053558588 0.13673076 0.37099993 1911587
0.064288147 0.13913521 0.37099999 2042918
0.19934304 0.13220519 0.37266669 2175792
0.2025955 0.13206884 0.37231112 2438962
-0.26217848 0.1488913 0.37782499 2308406
-0.25563642 0.14474882 0.37521923 2373430
-0.23462342 0.14208554 0.37716874 2374454
-0.20363012 0.14275976 0.37951815 2636341
-0.19561699 0.14071845 0.37779999 2767926
-0.15466793 0.14643645 0.37669614 2570548
-0.14488138 0.14303152 0.37220472 2570548
-0.13549849 0.14327204 0.37299234 2503985
-0.12405861 0.14767087 0.37405714 2438960
-0.11392092 0.14422239 0.37154543 2307375
-0.10463696 0.14442083 0.37147775 2307120
-0.094586566 0.14532214 0.37376875 2372654
-0.085440114 0.14778963 0.37558177 2438190
-0.074573569 0.14586574 0.37800744 2504239
-0.065092102 0.14468864 0.37412 2372653
-0.054085061 0.14662957 0.37330002 2372655
-0.045893941 0.14742488 0.37310001 2241070
-0.024184834 0.1412683 0.37424999 2109479
-0.013586402 0.14614397 0.3712 2175014
-0.0035050092 0.14288682 0.37439233 1977381
0.0046695811 0.14475776 0.37523028 1846053
0.014021283 0.14590564 0.3741037 1911845
0.026255986 0.14858246 0.3715333 1911333
0.032275174 0.1486571 0.371025 1977123
0.048713714 0.14432834 0.37099999 1911584
0.054764841 0.14431125 0.37100002 1911586
0.065367341 0.1447439 0.37100005 1846053
0.075101748 0.14652516 0.37099993 1780518
0.084252119 0.14748612 0.37100002 1715496
-0.26202697 0.15124445 0.37823334 2242869
-0.2568416 0.15135339 0.37962499 2505270
-0.19282448 0.15878806 0.37592 2439990
-0.18617314 0.15609321 0.37550002 2504757
-0.17445683 0.15370008 0.37562221 2570550
-0.16494384 0.15316865 0.37572855 2505269
-0.15627268 0.15165775 0.3728857 2570806
-0.13369805 0.15649307 0.37288889 2439216
-0.12433598 0.15448929 0.37514001 2438961
-0.11829609 0.15324236 0.37221998 2504498
-0.091879018 0.15165462 0.37156665 2307628
-0.085159808 0.15189101 0.37291875 2372398
-0.075060315 0.15318145 0.37577084 2438192
-0.065145254 0.15002114 0.37709999 2372655
-0.053844061 0.1552801 0.3770909 2241069
-0.046117634 0.15432136 0.37533686 2175788
0.0070587914 0.15157574 0.37557498 1911844
0.015177419 0.1531201 0.37507331 1977379
0.024115913 0.15161623 0.37196663 1977126
0.032290883 0.15131804 0.37124997 2042658
0.08422526 0.15348333 0.37100002 1715238
-0.26140466 0.16694312 0.37146664 2439992
-0.25494686 0.16718177 0.37403685 2439737
-0.24627985 0.16791619 0.37291169 2439222
-0.23633829 0.16808979 0.37285331 2505527
-0.2038431 0.16553254 0.37850526 2636598
-0.19483627 0.16460949 0.37410346 2505012
-0.18578109 0.16605046 0.37098098 2570291
-0.17959364 0.16786292 0.37015 2307888
-0.13587239 0.16404702 0.37479997 2439219
-0.12745084 0.1650328 0.37459999 2505269
-0.101513 0.16901809 0.3716 2373426
-0.096216679 0.16817133 0.37222728 2505011
-0.070050709 0.16077198 0.3779 2307375
-0.067621373 0.16268156 0.37426665 2503983
-0.25142968 0.1704054 0.37029999 2505271
-0.24623647 0.17486671 0.37302136 2504754
-0.23476769 0.17330201 0.37571779 2571063
-0.22781412 0.17371882 0.379475 2570550
-0.20449317 0.17479251 0.37746248 2636085
-0.19540875 0.17225413 0.37317854 2570550
-0.18529484 0.1718203 0.37136 2505011
-0.17905171 0.171039 0.37023333 2439732
-0.097095728 0.17121857 0.37446666 2701617
-0.24534161 0.18526344 0.37576973 2438963
-0.2385046 0.18776208 0.3788 2570035
-0.20575714 0.18215901 0.37808332 2570548
-0.24302037 0.19451576 0.37570366 2504757
-0.23824532 0.19529602 0.37714446 2373684
-0.21700147 0.19769457 0.37 2767930
-0.23729111 0.20085137 0.37914997 2571062
0.037328117 -0.070990272 0.38615 3422779
0.04304833 -0.073201597 0.38761428 9080718
0.052882314 -0.074936032 0.38513124 9082260
0.028571596 -0.061627712 0.38589999 3227452
0.035814214 -0.064083785 0.38227239 13094344
0.045059919 -0.0643785 0.38586521 14605005
0.055211626 -0.064463429 0.38371286 13024949
0.064677335 -0.063096203 0.38168693 14605780
0.02559004 -0.054476187 0.38259545 9213073
0.033973563 -0.056162745 0.38202628 16580345
0.046076652 -0.056574356 0.38149998 11177095
0.054901712 -0.055061664 0.38239664 10914696
0.064149253 -0.056169152 0.38127777 9996678
0.015509546 -0.046265818 0.38347501 3161401
0.026035842 -0.047210276 0.3811312 15922674
0.031137869 -0.04833366 0.38209999 16580602
0.048451997 -0.045926191 0.38088 14798279
0.05335341 -0.046709664 0.381475 14339013
0.0091379154 -0.036978092 0.38049999 3227197
0.19855244 -0.0018206168 0.38661668 2241328
0.20514324 -0.0031171395 0.38579997 2241072
0.2156451 -0.0031669261 0.38806152 2241586
0.22366975 -0.0021282174 0.38938749 2372914
0.23589486 -0.0014457182 0.38922498 2241843
0.24303424 -0.002248114 0.38782856 2176306
0.15952666 0.0095356302 0.38349998 1649445
0.16534935 0.0062242374 0.38263747 1846310
0.17470565 0.0059784385 0.386125 2109738
0.19796146 0.0023745911 0.38430834 2241326
0.20519568 0.003407527 0.38436666 2241582
0.21501602 0.0034528568 0.38678822 2176048
0.22439329 0.0023983419 0.38869333 2307120
0.23503903 0.0019745878 0.3890765 2241585
0.24333477 0.0047725793 0.38495672 2110769
0.25214043 0.0060154526 0.38866001 2044977
0.15952238 0.01490898 0.38349998 1714983
0.1649027 0.013405194 0.3829889 1846312
0.17442454 0.012989202 0.38475454 2109739
0.18848598 0.018155372 0.38973331 2175790
0.19061862 0.018733 0.3892 2044207
0.24686322 0.017865732 0.38822857 2044978
0.25360098 0.017290132 0.38850001 2045233
0.15655303 0.027448833 0.38348332 1845797
0.16519278 0.025310433 0.38718635 2174761
0.17254166 0.026702436 0.38759997 2306347
0.18812485 0.022388844 0.38961664 2109997
0.19493252 0.025195697 0.38823152 2175790
0.20485058 0.026757501 0.38829994 2110256
0.21132739 0.028569171 0.38774997 2176561
0.24646384 0.025086885 0.38672656 2044976
0.25443089 0.023860656 0.38534802 2110768
0.26426429 0.026032615 0.38757998 2110255
0.27489701 0.029118963 0.38779998 2044976
0.2857874 0.029522162 0.38913998 2045490
0.29081196 0.029482095 0.38859999 2045236
0.14885105 0.035526812 0.38349998 1780002
0.15540312 0.034966163 0.38658887 1714467
0.16322635 0.034977637 0.38295001 2174762
0.17269312 0.033672132 0.38331252 2306345
0.19470106 0.034608729 0.38668779 2109741
0.20513491 0.033856351 0.38619 2044719
0.21236321 0.034280844 0.38704997 2044718
0.23768221 0.036081329 0.38520908 2044461
0.24206495 0.030827701 0.3827 2110511
0.25975412 0.030605225 0.38009998 2111029
0.265497 0.030656587 0.38076001 2044720
0.27539539 0.030774355 0.38224 2110512
0.28543502 0.03299161 0.3827 2044722
-0.055939298 0.048460543 0.38655999 11384243
0.1492517 0.040600728 0.3892 1582884
0.15812571 0.040631175 0.38628 1780008
0.16231422 0.042855121 0.38689998 2175021
0.22704443 0.047142658 0.38500908 2109996
0.23470481 0.0434912 0.38446921 1913645
-0.094794855 0.058453865 0.38981429 16711671
-0.085003003 0.057814579 0.38881424 15724734
-0.074951567 0.058344074 0.38823748 14341539
-0.064625278 0.056621298 0.38867494 12633550
-0.057943258 0.055959854 0.3845 9214376
0.14711848 0.058877151 0.38286 1911589
0.15416124 0.056410812 0.38414371 2043686
0.16620964 0.057359662 0.3883 2241063
0.17467591 0.057349999 0.38900715 2306345
0.18547 0.056978688 0.38861331 2175276
0.19494759 0.057476178 0.3882454 2109999
0.20451508 0.057001099 0.38530913 2175535
0.21452357 0.056574795 0.38370907 2175790
0.22293259 0.053461 0.38404664 2176048
-0.13420737 0.065747619 0.38785785 15509405
-0.12546657 0.065884508 0.38649252 13214633
-0.11513724 0.068481117 0.38794544 11990185
-0.10395379 0.065707959 0.38634732 12306356
-0.095181823 0.064530484 0.38456061 15462628
-0.085110039 0.064652547 0.38476565 15593670
-0.074654743 0.064261943 0.38427061 15328929
-0.064972393 0.06483414 0.38488123 3954290
-0.056449875 0.064531602 0.38777921 2179683
-0.048018578 0.06762103 0.3863 2108975
0.14664029 0.064899817 0.38259998 1976869
0.15531608 0.064726278 0.38382185 2240554
0.16488823 0.064827137 0.38604513 2240553
0.17499498 0.065029226 0.3859846 2175274
0.18498789 0.064677119 0.38519996 2241068
0.19547586 0.064979531 0.38505521 2175534
0.20163786 0.064040922 0.38348889 2175533
0.22787917 0.067579046 0.384175 2306610
0.23489864 0.067049131 0.38395387 2241070
0.24351054 0.068534561 0.38472497 2044204
0.25701746 0.069675334 0.3813 1978927
0.26068938 0.066395909 0.38279998 1979442
