# .PCD v0.7 - Point Cloud Data file format
VERSION 0.7
FIELDS x y z rgb
SIZE 4 4 4 4
TYPE F F F U
COUNT 1 1 1 1
WIDTH 1173
HEIGHT 1
VIEWPOINT 0 0 0 1 0 0 0
POINTS 1173
DATA ascii
-0.24160133 0.13042794 0.41489998 6579805
-0.24064927 0.1304317 0.41489998 6579805
-0.24062161 0.13093852 0.4165 6579805
-0.23966601 0.13094242 0.4165 6382426
-0.23916891 0.13119787 0.41729999 6382426
-0.2382115 0.13120189 0.41729999 6382426
-0.23810697 0.1316776 0.4188 6448219
-0.23714621 0.13168176 0.4188 6579805
-0.23708789 0.13218905 0.42039999 6579805
-0.23662904 0.13247634 0.42129999 6382426
-0.23566264 0.13248068 0.42129999 6448219
-0.2351419 0.13273665 0.42209998 6448219
-0.23417383 0.13274117 0.42209998 6448219
-0.23364769 0.13299726 0.42289999 6382426
-0.23267773 0.13300186 0.42289999 6382426
-0.23214616 0.13325812 0.42369998 6579551
-0.23161091 0.13351445 0.42449999 6447965
-0.23063734 0.13351922 0.42449999 6579551
-0.2296638 0.13352406 0.42449999 6579551
-0.22869028 0.13352893 0.42449999 6645344
-0.22771679 0.13353387 0.42449999 6645344
-0.22631593 0.13328718 0.42369998 6579551
-0.22491883 0.13304055 0.42289999 6382172
-0.22310174 0.13254222 0.42129999 6382172
-0.22166103 0.13226418 0.42039999 6448219
-0.21948949 0.13154566 0.4181 6579805
-0.21727623 0.13079569 0.41569999 6513755
-0.21632293 0.13080086 0.41569999 6645341
-0.21412617 0.13005087 0.41329998 6645341
-0.21240467 0.1295841 0.4118 6645341
-0.20986836 0.12861381 0.40869999 6579551
-0.20816423 0.12814702 0.40719998 6447965
-0.20611078 0.12745991 0.405 6447965
-0.20442198 0.12699312 0.40349999 6645344
-0.20274004 0.12652633 0.40199998 6645344
-0.20071356 0.12583922 0.3998 6579551
-0.19979654 0.12584455 0.3998 6579551
-0.19818307 0.12540922 0.39839998 6579551
-0.19692266 0.12519428 0.39769998 6579551
-0.1956654 0.12497935 0.39699998 6645344
-0.19436228 0.12473294 0.3962 6448737
-0.19311163 0.12451806 0.3955 6514530
-0.19220431 0.12452356 0.3955 6448737
-0.19095841 0.12430871 0.39479998 6514530
-0.18971565 0.12409383 0.39409998 6514530
-0.18881147 0.12409943 0.39409998 6646114
-0.18790723 0.12410505 0.39409998 6711907
-0.18700293 0.12411068 0.39409998 6712161
-0.18576807 0.12389593 0.39339998 6646368
-0.18486531 0.12390163 0.39339998 6580575
-0.010847988 0.13735041 0.43279999 5526086
-0.0098366644 0.13735178 0.43279999 5591879
-0.0088253124 0.13735305 0.43279999 5526086
-0.0078301821 0.13763991 0.4337 5526088
-0.0068292455 0.13789496 0.43449998 5460295
-0.0058138408 0.13789608 0.43449998 5459782
-0.0048083519 0.13818276 0.43539998 5459782
-0.0037829618 0.13789813 0.43449998 5525575
-0.002756662 0.13735951 0.43279999 5591368
-0.0017382887 0.13682082 0.43109998 5591883
-0.00073072512 0.1368216 0.43109998 5657676
0.00027582774 0.13631453 0.42949998 5855053
0.0307092 0.11186315 0.35249999 7237476
0.031130228 0.11043385 0.34799999 7303269
0.031594455 0.10922665 0.34419999 7303269
0.032304462 0.10890798 0.3432 7434085
0.033000115 0.10855752 0.34209999 7499878
0.033799276 0.10855608 0.34209999 7368292
0.034598406 0.10855462 0.34209999 7499878
0.03534577 0.10839443 0.3416 7565671
0.036143664 0.10839287 0.3416 7565671
0.036941528 0.10839128 0.3416 7499878
0.037739355 0.10838962 0.3416 7565671
0.038537148 0.10838792 0.3416 7499365
0.039392475 0.10854482 0.34209999 7367779
0.04019136 0.10854305 0.34209999 7367779
0.040990211 0.10854122 0.34209999 7433572
0.04178901 0.10853934 0.34209999 7499365
0.042724717 0.10888642 0.3432 7433572
0.043589417 0.10904308 0.34369999 7367779
0.044456419 0.10919972 0.34419999 7367779
0.045338854 0.109388 0.3448 7302499
0.046143744 0.1093859 0.3448 7302499
0.04709838 0.10973271 0.3459 7302499
0.048058096 0.11007949 0.347 7302499
0.048938401 0.11023583 0.3475 7302499
0.049906902 0.1105825 0.3486 7368292
0.050807726 0.11077048 0.34919998 7302499
0.05169652 0.11092671 0.3497 7105120
0.052602615 0.11111461 0.35029998 7105120
0.053419955 0.11111213 0.35029998 7105120
0.054237254 0.11110961 0.35029998 7105120
0.055054497 0.11110707 0.35029998 7105120
0.055775985 0.11091418 0.3497 7105120
0.056591716 0.11091155 0.3497 7105120
0.057325315 0.11075031 0.34919998 7105120
0.058139764 0.11074761 0.34919998 7105120
0.058852874 0.11055458 0.3486 7039327
0.059665818 0.1105518 0.3486 7039327
0.060374595 0.11035872 0.34799999 6907741
0.061186023 0.11035588 0.34799999 6644569
0.061997391 0.11035299 0.34799999 6644569
0.062718466 0.11019152 0.3475 6644569
0.063528545 0.11018858 0.3475 6644569
0.064245991 0.11002704 0.347 6512983
0.0649423 0.10983378 0.34639999 6578776
0.065654725 0.1096722 0.3459 6446677
0.06634555 0.10947888 0.34529999 6117712
0.067150198 0.10947578 0.34529999 6051149
0.067954779 0.10947263 0.34529999 5590598
0.068440691 0.10896221 0.34369999 5393219
0.068919078 0.10845178 0.34209999 5327426
0.069389954 0.10794136 0.3405 5261631
0.069750249 0.10727244 0.33840001 5261631
0.07022576 0.10679372 0.3369 5195838
0.070567764 0.10612479 0.3348 5130045
0.07092122 0.10548759 0.3328 4867127
0.071373016 0.10500886 0.33129999 4735541
0.071600012 0.10421318 0.32879999 4997938
0.072365507 0.10420989 0.32879999 5984833
0.072908536 0.10388962 0.32780001 6509890
0.073356934 0.10344258 0.32639998 6509890
0.073776051 0.10296386 0.3249 6180927
0.074096352 0.10235837 0.32299998 6444099
0.074430928 0.10178459 0.32119998 7169107
0.074616618 0.1010207 0.3188 7366486
0.074814707 0.10028852 0.31649998 7170652
0.075025909 0.099588059 0.3143 7302238
0.075106293 0.098729171 0.3116 7302501
0.075831123 0.098725803 0.3116 7302501
0.076015368 0.098025367 0.30939999 7301986
0.076214127 0.09735667 0.3073 7038814
0.076503187 0.096814685 0.30559999 7038296
0.076784275 0.096272737 0.3039 6840917
0.076955393 0.095604084 0.30179998 7168337
0.077348284 0.095220566 0.30059999 7102544
0.077709526 0.094805352 0.29929999 7167820
0.078090899 0.094421856 0.29809999 7167820
0.078783773 0.094418414 0.29809999 7102027
0.079156622 0.094034918 0.2969 6773062
0.079523847 0.093651406 0.29569998 6575683
0.079993933 0.093394592 0.2949 7102027
0.08037816 0.093042769 0.2938 7298890
0.080729641 0.092659295 0.29260001 7298890
0.08107546 0.092275828 0.29139999 7364683
0.081443712 0.091924042 0.29029998 7364683
0.081778489 0.091540597 0.28909999 7298890
0.082022086 0.091062173 0.28759998 6707782
0.082689941 0.091058709 0.28759998 6444610
0.082922943 0.090580314 0.2861 6907228
0.0830613 0.090006977 0.2843 7367779
0.08307343 0.089307025 0.28209999 6117973
0.08319401 0.088733748 0.28029999 5986387
0.08351557 0.08838208 0.27919999 7303019
0.083651088 0.087840512 0.2775 6316124
0.083748288 0.087267324 0.2757 5790037
0.083867677 0.086725816 0.27399999 6579553
0.083979122 0.086184345 0.2723 6909288
0.084610857 0.08618094 0.2723 6711909
0.084835574 0.085766099 0.271 4475466
0.085054196 0.085351273 0.26969999 3751743
0.085234977 0.084904842 0.2683 3358018
0.085569203 0.084616639 0.2674 4081741
0.085866958 0.08429683 0.26639998 4411219
0.086160034 0.083977021 0.26539999 4213840
0.086481117 0.083688878 0.26449999 3291453
0.086863816 0.083464026 0.2638 4607313
0.087475337 0.083460666 0.2638 5133911
0.087886453 0.083267458 0.26319999 4936532
0.088294744 0.083074279 0.2626 4803912
0.08870019 0.082881093 0.26199999 5396049
0.089205071 0.082782842 0.2617 6246983
0.089571245 0.082558043 0.26100001 5128502
0.090072304 0.082459785 0.26069999 4864299
0.090571932 0.082361542 0.2604 5259057
0.091070123 0.082263298 0.26010001 7561810
0.091566868 0.08216504 0.25979999 13548973
0.092168607 0.082161687 0.25979999 16776416
0.092663176 0.082063451 0.2595 16776930
0.093264118 0.082060099 0.2595 16776412
0.093756504 0.081961863 0.25920001 14735030
0.09413825 0.081768788 0.2586 13418391
0.094627067 0.08167059 0.25830001 16774348
0.095114432 0.081572384 0.25799999 16775886
0.095600381 0.0814742 0.2577 15717801
0.095972896 0.081281163 0.25709999 15717801
0.096455276 0.081182994 0.2568 14858642
0.097049616 0.081179678 0.2568 15977123
0.097529829 0.081081532 0.25650001 16774599
0.098008603 0.080983378 0.25619999 16775370
0.098485954 0.080885261 0.2559 16775619
0.099078029 0.080881961 0.2559 16771250
0.099670067 0.08087866 0.2559 16771005
0.10026205 0.080875374 0.2559 15253140
0.10085399 0.080872089 0.2559 13606267
0.10132697 0.080774009 0.25560001 14856334
0.10191815 0.080770724 0.25560001 16106914
0.10250929 0.080767475 0.25560001 16501672
0.10310039 0.080764204 0.25560001 15516062
0.10381316 0.080855742 0.2559 11831654
0.10440487 0.080852479 0.2559 7296326
0.10511964 0.080944017 0.25619999 7230533
0.10571199 0.080940783 0.25619999 6248276
0.10630431 0.080937557 0.25619999 6446687
0.10689658 0.080934338 0.25619999 4802632
0.10748882 0.080931135 0.25619999 7894903
0.1082076 0.081022702 0.25650001 10987682
0.10880048 0.081019521 0.25650001 7632239
0.10926536 0.080921561 0.25619999 7961204
0.10985749 0.080918394 0.25619999 9079685
0.11032025 0.080820486 0.2559 10658719
0.11091162 0.080817357 0.2559 9079687
0.11137224 0.080719486 0.25560001 8619653
0.11183145 0.08062163 0.25529999 9869720
0.11242137 0.080618531 0.25529999 11777200
0.11287844 0.080520727 0.255 11777200
0.11346763 0.080517665 0.255 11579562
0.11405675 0.08051461 0.255 11974320
0.11478075 0.080606282 0.25529999 11974320
0.11550611 0.080697976 0.25560001 11708834
0.11623284 0.080789678 0.2559 10853525
0.11696094 0.080881387 0.25619999 10850945
0.11769041 0.080973119 0.25650001 12364184
0.11828291 0.080970138 0.25650001 14401443
0.11887539 0.080967188 0.25650001 14467236
0.11946785 0.080964245 0.25650001 12164481
0.12006029 0.080961332 0.25650001 11440758
0.12051161 0.080863737 0.25619999 11505781
0.12096153 0.080766179 0.2559 14071708
0.12155255 0.080763325 0.2559 15978156
0.12200039 0.080665812 0.25560001 15254433
0.12259069 0.080662988 0.25560001 14792337
0.12303641 0.080565535 0.25529999 15187095
0.12362603 0.080562763 0.25529999 16766131
0.12421562 0.080560014 0.25529999 16767930
0.12480521 0.080557294 0.25529999 13740933
0.12524748 0.080459937 0.255 14398863
0.12583637 0.080457263 0.255 15519906
0.12627654 0.080359958 0.25470001 16177836
0.12671529 0.080262676 0.25439999 15654574
0.1271527 0.080165431 0.25409999 16773055
0.12773952 0.080162868 0.25409999 16776919
0.12832636 0.080160312 0.25409999 16776662
0.12891321 0.080157802 0.25409999 15126976
0.12950003 0.080155298 0.25409999 10192501
0.13024043 0.080247462 0.25439999 8415072
0.13082799 0.080245011 0.25439999 8020314
0.13157053 0.080337219 0.25470001 6705736
0.13247012 0.080524057 0.25529999 6705736
0.13321614 0.080616318 0.25560001 6310978
0.13396353 0.080708578 0.2559 6706503
0.13471237 0.080800883 0.25619999 7759191
0.13562101 0.080987804 0.2568 7562580
0.13621421 0.080985539 0.2568 7496787
0.13680743 0.080983289 0.2568 7496785
0.13740063 0.080981076 0.2568 7167820
0.13783266 0.080884285 0.25650001 7365199
0.13826333 0.080787532 0.25619999 7562578
0.13869266 0.080690831 0.2559 7562578
0.13912062 0.080594152 0.25560001 6509890
0.1395472 0.080497511 0.25529999 5984063
0.13980776 0.080306321 0.25470001 6181442
0.14023094 0.080209754 0.25439999 6576200
0.14048672 0.080018647 0.2538 7497302
0.14090648 0.079922169 0.25349998 7628373
0.14149235 0.079920299 0.25349998 7562580
0.14191014 0.079823889 0.25319999 7299669
0.142214 0.079664461 0.2527 5720637
0.14262858 0.079568133 0.25239998 6905683
0.14321207 0.079566397 0.25239998 6445132
0.14362468 0.079470158 0.25209999 6708818
0.14420751 0.079468496 0.25209999 6379853
0.14479043 0.079466894 0.25209999 6313806
0.14537339 0.079465307 0.25209999 6445392
0.14595638 0.079463772 0.25209999 6709077
0.14653942 0.07946226 0.25209999 6774870
0.14712252 0.0794608 0.25209999 7301216
0.14770566 0.079459369 0.25209999 6643286
0.14828886 0.079457976 0.25209999 6708564
0.14904924 0.079551168 0.25239998 7103322
0.14963324 0.079549856 0.25239998 7103322
0.15021729 0.079548575 0.25239998 7301214
0.15080141 0.079547331 0.25239998 7169628
0.15138556 0.079546139 0.25239998 6973019
0.15215045 0.079639524 0.2527 7104605
0.15285632 0.079701439 0.2529 7105638
0.15344183 0.079700366 0.2529 7368810
0.15421009 0.079793856 0.25319999 7172460
0.15497983 0.07988739 0.25349998 7106667
0.15575102 0.079980984 0.2538 7106414
0.1563389 0.079980053 0.2538 6645863
0.15711233 0.080073722 0.25409999 5987935
0.15770103 0.08007288 0.25409999 6251107
0.15847668 0.080166623 0.25439999 5790037
0.15925381 0.080260411 0.25470001 5658451
0.16003238 0.080354229 0.255 5921364
0.16062351 0.080353566 0.255 5921364
0.16140431 0.080447465 0.25529999 6118227
0.16199628 0.080446891 0.25529999 6315606
0.16277935 0.080540895 0.25560001 6381399
0.16375567 0.08072947 0.25619999 6381399
0.16473486 0.080918081 0.2568 6184020
0.1657169 0.081106745 0.25740001 6184020
0.16650802 0.081200913 0.2577 6578263
0.16749512 0.081389666 0.25830001 6709849
0.16809466 0.081389405 0.25830001 6907226
0.16889019 0.081483707 0.2586 7301984
0.16988386 0.081672601 0.25920001 7564386
0.17107774 0.081956059 0.26010001 7498593
0.17207786 0.082145043 0.26069999 7169628
0.17334586 0.082460113 0.2617 7038042
0.17435271 0.082649186 0.26229998 6972249
0.17556255 0.082932845 0.26319999 7038042
0.17684361 0.083248056 0.2642 6907226
0.17786075 0.083437271 0.26479998 6578261
0.17847644 0.083437502 0.26479998 6117712
0.17976856 0.083752871 0.2658 5986126
0.18099755 0.084036782 0.2667 6051149
0.18229893 0.084352247 0.26769999 5590598
0.18360513 0.084667787 0.2687 5459012
0.18464182 0.08485733 0.26929998 5459012
0.18595664 0.085172966 0.2703 5459012
0.18706913 0.085394137 0.271 5459782
0.18839277 0.085709877 0.27199998 5459782
0.18951273 0.085931152 0.27269998 5526088
0.19014801 0.085931912 0.27269998 5460295
0.19148302 0.086247839 0.2737 5526858
0.19282283 0.086563826 0.27469999 5592651
0.19444911 0.087005921 0.27609998 5790289
0.19579944 0.087322034 0.2771 5987668
0.19722548 0.087669723 0.2782 6250840
0.19858563 0.087985955 0.27919999 6448219
0.20002198 0.088333778 0.28029999 6645344
0.20146364 0.088681653 0.2814 6645344
0.20291051 0.089029595 0.2825 6579551
0.20357004 0.089030921 0.2825 6579551
0.20473579 0.089252949 0.2832 6645344
0.20619506 0.089601085 0.2843 6645344
0.20736855 0.089823231 0.285 6448737
0.20883749 0.090171508 0.2861 6251358
0.21009204 0.09042529 0.28689998 6251358
0.21157089 0.090773717 0.28799999 6317151
0.21305501 0.091122195 0.28909999 6448737
0.21432264 0.0913762 0.2899 6448737
0.21581674 0.091724835 0.29099998 6448737
0.2164977 0.091726795 0.29099998 6448737
0.21777597 0.091981009 0.29179999 6448737
0.21935755 0.092361368 0.29299998 6317151
0.22064458 0.092615739 0.2938 6448737
-0.29524758 0.12885933 0.40719998 3882559
-0.29488361 0.12911157 0.40799999 3816766
-0.29444405 0.12933226 0.40869999 3816764
-0.29464775 0.1298378 0.41029999 3948350
-0.29369897 0.12983713 0.41029999 3882557
-0.29324979 0.13005804 0.41099998 4145729
-0.29286873 0.1303107 0.4118 4343361
-0.29248413 0.13056341 0.41259998 4277568
-0.29153079 0.13056307 0.41259998 4868935
-0.29107055 0.13078429 0.41329998 5197900
-0.29067752 0.13103725 0.41409999 5526863
-0.29028097 0.1312903 0.41489998 4803140
-0.28932297 0.13129029 0.41489998 4013621
-0.28892124 0.1315435 0.41569999 3684656
-0.28796175 0.13154367 0.41569999 3684656
-0.28700247 0.1315439 0.41569999 4144437
-0.28659385 0.13179736 0.4165 4473402
-0.28563306 0.13179775 0.4165 4605758
-0.2841256 0.13154505 0.41569999 4605758
-0.28316697 0.1315456 0.41569999 4539965
-0.2822085 0.13154624 0.41569999 4474172
-0.28125021 0.13154696 0.41569999 4737344
-0.28029203 0.13154775 0.41569999 4868930
-0.27879643 0.13129547 0.41489998 4868930
-0.27784041 0.13129643 0.41489998 5263688
-0.27688453 0.13129745 0.41489998 5460813
-0.27486473 0.13079223 0.41329998 5526606
-0.27344888 0.13057189 0.41259998 5789778
-0.27197042 0.13031998 0.4118 5855571
-0.27049571 0.13006815 0.41099998 5855571
-0.26856577 0.12959486 0.4095 5921364
-0.26664281 0.12912163 0.40799999 5987157
-0.26472697 0.12864846 0.40649998 6184536
-0.2628181 0.12817536 0.405 6184793
-0.26188621 0.12817705 0.405 6184793
-0.26043895 0.12792562 0.40419999 5988184
-0.2590597 0.1277059 0.40349999 5988184
-0.25768381 0.12748624 0.40279999 6053977
-0.25624749 0.12723503 0.40199998 6119770
-0.2544339 0.12679395 0.40059999 5988184
-0.25300655 0.12654282 0.3998 5988184
-0.25208738 0.126545 0.3998 6119770
-0.25116831 0.12654725 0.3998 6053977
-0.25024939 0.12654954 0.3998 6053977
-0.24933054 0.12655193 0.3998 6250586
-0.24890883 0.1268076 0.40059999 6250586
-0.24798833 0.12681012 0.40059999 6316379
-0.24749961 0.12703429 0.40129998 6316379
-0.2470078 0.12725855 0.40199998 6316379
-0.24657404 0.12751456 0.40279999 6382172
-0.24607572 0.12773895 0.40349999 6447965
-0.24557424 0.12796344 0.40419999 6382172
-0.24513018 0.12821965 0.405 6382172
-0.24510461 0.12869756 0.40649998 6579551
-0.24417122 0.12870067 0.40649998 6579805
-0.24365672 0.12892547 0.40719998 6579805
-0.24361594 0.12940364 0.40869999 6448219
-0.24315268 0.12966026 0.4095 6579805
-0.24309991 0.13013859 0.41099998 6448219
-0.24262787 0.13039538 0.4118 6382426
-0.24215223 0.1306522 0.41259998 6448219
-0.24208213 0.1311308 0.41409999 6579805
-0.24159762 0.1313878 0.41489998 6382426
-0.24064551 0.13139156 0.41489998 6382426
-0.24015561 0.1316487 0.41569999 6448219
-0.23966207 0.13190596 0.4165 6448219
-0.2391649 0.13216326 0.41729999 6382426
-0.23866409 0.13242063 0.4181 6382426
-0.23810287 0.13264643 0.4188 6382426
-0.23759507 0.13290395 0.41959998 6382426
-0.23759115 0.13344663 0.42129999 6382426
-0.23752333 0.13395774 0.42289999 6382426
-0.23655325 0.13396209 0.42289999 6448219
-0.23602881 0.13421994 0.42369998 6579805
-0.23505694 0.13422441 0.42369998 6448219
-0.23452707 0.13448241 0.42449999 6382426
-0.23399356 0.13474047 0.4253 6448219
-0.2330181 0.13474514 0.4253 6448219
-0.23204264 0.13474986 0.4253 6448219
-0.23150183 0.13500811 0.42609999 6448219
-0.23052454 0.13501294 0.42609999 6448219
-0.22911634 0.13476434 0.4253 6382426
-0.22814097 0.13476931 0.4253 6448219
-0.22673824 0.13452077 0.42449999 6448219
-0.22491381 0.13401875 0.42289999 6579805
-0.22309662 0.13351674 0.42129999 6579805
-0.22081229 0.1327295 0.4188 6579805
-0.21906437 0.1322592 0.41729999 6579805
-0.21643484 0.13125011 0.41409999 6711134
-0.21548514 0.13125525 0.41409999 6711134
-0.21334387 0.1305314 0.4118 6645341
-0.20950368 0.12933727 0.40799999 6448219
-0.20739217 0.12861338 0.4057 6448219
-0.20534213 0.12792116 0.40349999 6447965
-0.20365675 0.12745087 0.40199998 6645344
-0.20202869 0.1270123 0.40059999 6645344
-0.20035678 0.12654202 0.39909998 6579805
-0.19944133 0.12654735 0.39909998 6448219
-0.1981777 0.12633076 0.39839998 6448219
-0.19657063 0.12589222 0.39699998 6645344
-0.19526571 0.12564397 0.3962 6776930
-0.19401345 0.12542741 0.3955 6514530
-0.19276433 0.12521085 0.39479998 6514530
-0.1918586 0.12521636 0.39479998 6514530
-0.19095284 0.12522191 0.39479998 6448737
-0.1897101 0.12500545 0.39409998 6580323
-0.18880583 0.12501103 0.39409998 6580323
-0.18790159 0.12501666 0.39409998 6646116
-0.18699726 0.12502232 0.39409998 6646114
-0.18576238 0.12480593 0.39339998 6646114
-0.18485959 0.12481163 0.39339998 6514782
-0.18362944 0.1245953 0.39269999 6580575
-0.009855791 0.13864361 0.4337 5460293
-0.0088423975 0.1386449 0.4337 5526086
-0.0078434171 0.13890189 0.43449998 5460295
-0.0068280995 0.13890305 0.43449998 5526088
-0.0058247983 0.1391919 0.43539998 5657161
-0.0048073293 0.13919295 0.43539998 5591368
-0.0037898379 0.13919395 0.43539998 5525575
-0.00275577 0.13836367 0.43279999 5591368
-0.0017374624 0.13782105 0.43109998 5722956
-0.00072996091 0.13782184 0.43109998 5788749
0.00027652719 0.13731107 0.42949998 5920848
0.030707937 0.11268108 0.35249999 7368294
0.031128934 0.11124133 0.34799999 7434085
0.031593133 0.11002532 0.34419999 7499878
0.032303095 0.10970433 0.3432 7499878
0.032998707 0.10935131 0.34209999 7565671
0.033797819 0.10934988 0.34209999 7434085
0.034596905 0.10934841 0.34209999 7499878
0.035344228 0.10918707 0.3416 7499878
0.036142081 0.10918549 0.3416 7499878
0.036939897 0.10918389 0.3416 7499876
0.037737675 0.10918222 0.3416 7565669
0.038535427 0.10918052 0.3416 7434083
0.039390709 0.10933859 0.34209999 7302497
0.040189553 0.10933682 0.34209999 7302497
0.040988352 0.10933498 0.34209999 7302497
0.04178711 0.10933309 0.34209999 7302497
0.042722765 0.10968272 0.3432 7302497
0.043587424 0.10984054 0.34369999 7236704
0.044454373 0.10999832 0.34419999 7302497
0.045336768 0.110188 0.3448 7302497
0.046141617 0.11018591 0.3448 7368290
0.047096197 0.11053526 0.3459 7302497
0.048055872 0.11088458 0.347 7302497
0.048936132 0.1110421 0.3475 7368290
0.049904577 0.11139131 0.3486 7368290
0.050805364 0.11158068 0.34919998 7236704
0.051694114 0.11173805 0.3497 7236704
0.052510072 0.11173562 0.3497 7236704
0.053417467 0.11192486 0.35029998 7105118
0.054234721 0.11192234 0.35029998 7105118
0.055051912 0.11191978 0.35029998 7105118
0.055773374 0.1117255 0.3497 7105118
0.056589067 0.11172288 0.3497 7105118
0.057322629 0.11156044 0.34919998 7105118
0.058137037 0.11155774 0.34919998 7039327
0.058850113 0.11136333 0.3486 7039327
0.059663013 0.11136055 0.3486 7039327
0.060371771 0.11116607 0.34799999 6907741
0.061183158 0.11116321 0.34799999 6644569
0.061994497 0.11116033 0.34799999 6644569
0.062625282 0.11083799 0.347 6512983
0.063434161 0.11083505 0.347 6578776
0.064131901 0.11064039 0.34639999 6512983
0.064845517 0.11047768 0.3459 6512983
0.065537773 0.11028299 0.34529999 6315604
0.06624639 0.11012024 0.3448 6052432
0.066933148 0.1099255 0.34419999 6051149
0.067735136 0.10992236 0.34419999 5590598
0.06833794 0.10959984 0.3432 5393219
0.068815149 0.10908571 0.3416 5327426
0.069284834 0.10857155 0.34 5130047
0.069747008 0.10805742 0.33840001 5130047
0.070222512 0.1075752 0.3369 5130045
0.070564501 0.10690141 0.3348 5064252
0.070917942 0.10625955 0.3328 5064506
0.07136973 0.10577735 0.33129999 4867127
0.071596704 0.10497586 0.32879999 4735026
0.072362192 0.10497257 0.32879999 4669233
0.072905198 0.10464998 0.32780001 6378821
0.073353581 0.10419968 0.32639998 6181442
0.073772684 0.10371748 0.3249 6246720
0.074092984 0.10310758 0.32299998 6509892
0.074427545 0.10252962 0.32119998 7102544
0.074613236 0.10176016 0.3188 7497302
0.074811324 0.10102262 0.31649998 7104859
0.075022526 0.10031704 0.3143 7104859
0.075102918 0.099451907 0.3116 7236708
0.075827718 0.099448517 0.3116 7236708
0.076011963 0.098742977 0.30939999 7302501
0.07621073 0.098069385 0.3073 7302501
0.07649979 0.097523473 0.30559999 7104859
0.076780878 0.096977569 0.3039 6907480
0.076951995 0.096304037 0.30179998 6906195
0.077344865 0.095917732 0.30059999 6906195
0.077706113 0.095499493 0.29929999 7168335
0.078087479 0.095113203 0.29809999 7102542
0.078780316 0.095109768 0.29809999 7167820
0.079153173 0.094723463 0.2969 7102027
0.079520389 0.094337173 0.29569998 7036488
0.079990476 0.094078496 0.2949 7102281
0.08037471 0.093724124 0.2938 7102281
0.080726162 0.093337849 0.29260001 7036488
0.081071995 0.092951603 0.29139999 6641730
0.081440233 0.092597254 0.29029998 6641730
0.081775025 0.092211023 0.28909999 6707523
0.082018621 0.091729119 0.28759998 6839622
0.082686439 0.09172564 0.28759998 6642243
0.082919471 0.091243766 0.2861 5985093
0.083057836 0.090666249 0.2843 7037781
0.083187759 0.09008874 0.2825 6052434
0.083398305 0.089606941 0.28099999 5262918
0.083631769 0.08915706 0.27959999 6908261
0.083858654 0.088707201 0.2782 7368812
0.083957471 0.088129811 0.2764 5855830
0.084078513 0.087584339 0.27469999 5329486
0.084099069 0.086943254 0.27269998 6317151
0.084731713 0.086939842 0.27269998 6646116
0.084832162 0.086394459 0.271 6580842
0.085050792 0.08597663 0.26969999 5199189
0.08523158 0.085526951 0.2683 2634547
0.085565805 0.085236654 0.2674 3160891
0.085766889 0.084818885 0.26609999 4345426
0.086059272 0.084496766 0.2651 4740184
0.086379662 0.084206536 0.2642 4673106
0.086761661 0.083980061 0.26350001 5002071
0.087372489 0.083976693 0.26350001 5331290
0.087782905 0.083782107 0.26289999 5199704
0.088291369 0.083683126 0.2626 5067603
0.088696808 0.083488546 0.26199999 4672845
0.089065358 0.083262123 0.2613 5657163
0.089567877 0.083163165 0.26100001 5459784
0.090068936 0.083064206 0.26069999 5259827
0.090568557 0.082965255 0.2604 5062448
0.091066763 0.082866311 0.26010001 4995885
0.091563508 0.082767375 0.25979999 6838089
0.092165232 0.082764007 0.25979999 12826018
0.092659809 0.082665078 0.2595 16775654
0.093152948 0.08256615 0.25920001 16776927
0.093536116 0.082371652 0.2586 16776156
0.093916468 0.082177192 0.25799999 15657156
0.094403915 0.082078308 0.2577 16775894
0.094889894 0.081979409 0.25740001 16775889
0.095263168 0.081784979 0.2568 16775889
0.095745608 0.081686124 0.25650001 16775632
0.096226595 0.081587255 0.25619999 15121816
0.096819542 0.081583939 0.25619999 13871749
0.097298369 0.081485108 0.2559 14267529
0.097775765 0.081386268 0.25560001 16636077
0.098367199 0.081382968 0.25560001 16776132
0.098958567 0.081379667 0.25560001 16775618
0.099549919 0.081376374 0.25560001 16108447
0.10002368 0.081277572 0.25529999 13410934
0.10061423 0.081274293 0.25529999 14264197
0.10108583 0.081175514 0.255 13408888
0.10167564 0.08117225 0.255 12817516
0.1022654 0.081168994 0.255 13278067
0.10285512 0.081165731 0.255 16502694
0.1034448 0.08116249 0.255 16766637
0.10403445 0.081159241 0.255 14005136
0.10474714 0.081251487 0.25529999 7230533
0.10533743 0.081248276 0.25529999 6248276
0.10592765 0.081245042 0.25529999 6708827
0.10664302 0.08133731 0.25560001 4737347
0.1072339 0.081334114 0.25560001 8092790
0.10782474 0.081330918 0.25560001 11777198
0.10841554 0.081327721 0.25560001 11711405
0.10900632 0.081324555 0.25560001 11119270
0.10946841 0.081225939 0.25529999 10132375
0.11005843 0.081222795 0.25529999 8092539
0.11064843 0.081219658 0.25529999 8224125
0.11110769 0.081121109 0.255 9145229
0.11169695 0.08111801 0.255 9671573
0.11215407 0.081019484 0.25470001 11316649
0.11274259 0.081016406 0.25470001 11711407
0.11333108 0.081013344 0.25470001 11776941
0.11391953 0.081010297 0.25470001 11776941
0.11450798 0.081007265 0.25470001 10724253
0.11523196 0.081099652 0.255 9670282
0.1159573 0.081192054 0.25529999 10130833
0.11654709 0.081189066 0.25529999 11971490
0.11727449 0.081281506 0.25560001 10918802
0.11786493 0.081278548 0.25560001 10851199
0.11831631 0.081180193 0.25529999 13022368
0.11890599 0.081177272 0.25529999 12822670
0.11963613 0.081269778 0.25560001 10585708
0.12008539 0.08117149 0.25529999 10650210
0.12053324 0.081073247 0.255 12426621
0.12112222 0.081070408 0.255 16371631
0.12156799 0.080972217 0.25470001 16768702
0.12215625 0.080969423 0.25470001 16767157
0.12259991 0.080871262 0.25439999 14856847
0.12318746 0.080868512 0.25439999 15646363
0.12377501 0.080865771 0.25439999 16106914
0.12421589 0.080767721 0.25409999 16045223
0.12480274 0.080765024 0.25409999 16773829
0.12538958 0.080762364 0.25409999 16776650
0.1258277 0.080664381 0.2538 16777164
0.12626442 0.080566421 0.25349998 16776911
0.12669976 0.080468491 0.25319999 16776911
0.12728454 0.080465935 0.25319999 16312016
0.12786932 0.080463409 0.25319999 12693401
0.1284541 0.080460906 0.25319999 9206385
0.12919176 0.080553748 0.25349998 8285283
0.12993081 0.080646627 0.2538 8087650
0.13051701 0.080644183 0.2538 6705997
0.13125819 0.080737099 0.25409999 6641480
0.13200076 0.08083003 0.25439999 6641480
0.13274473 0.080922998 0.25470001 6970445
0.13349007 0.081015959 0.255 7693396
0.13423683 0.081108972 0.25529999 7956568
0.134985 0.081201993 0.25560001 7233615
0.13573457 0.081295043 0.2559 6970443
0.13616592 0.081197515 0.25560001 7168587
0.13675639 0.081195325 0.25560001 7300173
0.13734689 0.081193164 0.25560001 7497552
0.13777551 0.081095718 0.25529999 7497552
0.13820277 0.080998339 0.255 7431505
0.13862871 0.080900982 0.25470001 6641989
0.13905323 0.080803663 0.25439999 6181440
0.13947643 0.08070638 0.25409999 6049854
0.13973288 0.080513857 0.25349998 6641478
0.14015269 0.080416664 0.25319999 7562580
0.14057112 0.080319494 0.2529 7628373
0.14115563 0.080317639 0.2529 7562580
0.14162809 0.080252305 0.2527 6839118
0.14204337 0.080155231 0.25239998 6444360
0.14245732 0.080058239 0.25209999 6643025
0.14304017 0.080056526 0.25209999 6314060
0.14345209 0.079959586 0.2518 6577491
0.1440343 0.079957947 0.2518 6577491
0.14461654 0.079956345 0.2518 6314319
0.14537184 0.080050051 0.25209999 6577491
0.14595486 0.080048516 0.25209999 6774872
0.14653796 0.080047026 0.25209999 7038044
0.14712106 0.080045573 0.25209999 7038044
0.14770423 0.08004415 0.25209999 6577493
0.14828748 0.080042772 0.25209999 7037529
0.14887077 0.080041438 0.25209999 7366494
0.14945412 0.080040134 0.25209999 7366494
0.1500375 0.080038875 0.25209999 7301468
0.15062095 0.080037653 0.25209999 7301468
0.1513844 0.080131702 0.25239998 6973532
0.15196866 0.080130562 0.25239998 7105118
0.15273434 0.080224708 0.2527 7171688
0.1533194 0.08022365 0.2527 7369067
0.15402637 0.080286108 0.2529 7172460
0.15479547 0.080380358 0.25319999 7238253
0.15538189 0.080379419 0.25319999 7106414
0.15615323 0.080473751 0.25349998 6711656
0.15692599 0.080568127 0.2538 6316130
0.15770023 0.080662549 0.25409999 6316130
0.15828902 0.080661766 0.25409999 5855571
0.1590655 0.080756269 0.25439999 5855571
0.15984344 0.080850817 0.25470001 5921618
0.1604339 0.080850162 0.25470001 5921618
0.16121405 0.080944791 0.255 6118225
0.16218607 0.081134684 0.25560001 6315604
0.16296992 0.081229411 0.2559 6381397
0.16394697 0.081419386 0.25650001 6381397
0.16492689 0.081609406 0.25709999 6184020
0.16571654 0.081704259 0.25740001 6315606
0.16670153 0.081894383 0.25799999 6972251
0.16768937 0.082084537 0.2586 7301216
0.16868012 0.082274757 0.25920001 7367779
0.16928187 0.082274556 0.25920001 7170400
0.17027697 0.082464851 0.25979999 7170398
0.17127495 0.082655199 0.2604 7301984
0.17247386 0.082940817 0.2613 7235421
0.17374329 0.083258234 0.26229998 7169628
0.17495099 0.083543949 0.26319999 6972249
0.1762297 0.08386147 0.2642 6774870
0.17724538 0.084052064 0.26479998 6249296
0.17853266 0.084369674 0.2658 5986124
0.17915072 0.084369928 0.2658 5986124
0.18037756 0.084655911 0.2667 5788745
0.18167657 0.084973663 0.26769999 5590596
0.18298036 0.085291505 0.2687 5393217
0.18401559 0.085482404 0.26929998 5327426
0.18512228 0.085705109 0.26999998 5327426
0.18643878 0.086023107 0.271 5459012
0.18755296 0.086245924 0.27169999 5328196
0.1888783 0.086564027 0.27269998 5525575
0.19020845 0.086882196 0.2737 5591881
0.19084609 0.086882986 0.2737 5657674
0.19218348 0.087201253 0.27469999 5920846
0.19352569 0.087519608 0.2757 5920846
0.19494309 0.087869763 0.27680001 5856082
0.1962951 0.088188224 0.27779999 5921875
0.19793549 0.088633738 0.27919999 6119254
0.19936919 0.08898408 0.28029999 6382426
0.20080815 0.08933448 0.2814 6645344
0.20196606 0.089557976 0.28209999 6579551
0.20341463 0.08990851 0.2832 6579551
0.20407587 0.089909896 0.2832 6579551
0.20553248 0.090260565 0.2843 6645346
0.20699437 0.090611294 0.2854 6579553
0.20817053 0.090835109 0.2861 6447967
0.20942305 0.091090724 0.28689998 6447967
0.21089925 0.091441669 0.28799999 6448735
0.21238074 0.091792695 0.28909999 6448735
0.21364643 0.092048541 0.2899 6448735
0.21513778 0.092399672 0.29099998 6448735
0.21641202 0.092655659 0.29179999 6317149
0.21709494 0.09265767 0.29179999 6251356
0.21837512 0.092913792 0.29260001 6251358
0.21995868 0.09329699 0.2938 6251358
0.22147292 0.093648523 0.2949 6317151
-0.29524857 0.12980302 0.40719998 3816764
-0.2948845 0.13005707 0.40799999 3816764
-0.29444486 0.13027932 0.40869999 3816764
-0.29407403 0.13053355 0.4095 3882557
-0.29369962 0.13078782 0.41029999 4079936
-0.29325041 0.13101034 0.41099998 4343108
-0.29286927 0.13126481 0.4118 4540740
-0.29248455 0.13151933 0.41259998 4606533
-0.29153109 0.13151892 0.41259998 5329486
-0.29107085 0.13174176 0.41329998 5461072
-0.29067767 0.13199654 0.41409999 4605506
-0.29028106 0.13225141 0.41489998 3421232
-0.289323 0.13225137 0.41489998 3815988
-0.2883651 0.13225137 0.41489998 4079160
-0.2879616 0.1325065 0.41569999 4079160
-0.28700224 0.13250671 0.41569999 4539965
-0.28604305 0.13250698 0.41569999 4539965
-0.28508401 0.13250732 0.41569999 4670527
-0.28357831 0.13225275 0.41489998 4670527
-0.28262147 0.13225329 0.41489998 4539711
-0.28166473 0.13225387 0.41489998 4539711
-0.28070819 0.13225456 0.41489998 4802883
-0.27975184 0.13225533 0.41489998 5066055
-0.278258 0.13200116 0.41409999 5263688
-0.27730373 0.13200207 0.41409999 5461067
-0.2763496 0.13200308 0.41409999 5526860
-0.27439806 0.13152599 0.41259998 5724239
-0.27291748 0.13127214 0.4118 5855825
-0.2714408 0.13101834 0.41099998 5921618
-0.26950717 0.13054147 0.4095 5987414
-0.26803967 0.13028783 0.40869999 5987414
-0.26611847 0.12981106 0.40719998 6119000
-0.26374853 0.12911126 0.405 6119000
-0.26184306 0.12863466 0.40349999 6184793
-0.26091453 0.12863632 0.40349999 6184793
-0.25953513 0.12841488 0.40279999 5988184
-0.25809479 0.12816164 0.40199998 5988184
-0.25627449 0.12771717 0.40059999 6053977
-0.25484318 0.12746404 0.3998 6185563
-0.25392374 0.12746605 0.3998 6119770
-0.25256142 0.12724493 0.39909998 6119770
-0.25120246 0.12702391 0.39839998 6119770
-0.25028649 0.1270261 0.39839998 6119770
-0.24980886 0.1272516 0.39909998 6119770
-0.24889159 0.12725393 0.39909998 6185563
-0.24797434 0.12725633 0.39909998 6119770
-0.24705721 0.12725885 0.39909998 6185563
-0.24657191 0.12748462 0.3998 6185563
-0.24614488 0.12774235 0.40059999 6317149
-0.24522454 0.12774505 0.40059999 6448735
-0.24473123 0.12797105 0.40129998 6317149
-0.24472079 0.12845224 0.40279999 6251356
-0.24421933 0.1286784 0.40349999 6251610
-0.24419713 0.12915976 0.405 6317403
-0.24326709 0.12916282 0.405 6645596
-0.24275596 0.12938923 0.4057 6645596
-0.24271858 0.12987083 0.40719998 6579803
-0.2422587 0.13012926 0.40799999 6645596
-0.2417361 0.13035586 0.40869999 6579803
-0.24126926 0.13061446 0.4095 6448217
-0.24120961 0.13109642 0.41099998 6579805
-0.24073395 0.13135517 0.4118 6579805
-0.24025464 0.13161398 0.41259998 6448219
-0.23930772 0.13161771 0.41259998 6448219
-0.23922743 0.13209999 0.41409999 6382426
-0.23873749 0.13235903 0.41489998 6447962
-0.23870248 0.13287339 0.4165 6382169
-0.23866008 0.13338782 0.4181 6382426
-0.23855355 0.13387045 0.41959998 6382426
-0.23855345 0.13441697 0.42129999 6382426
-0.23894034 0.13518696 0.42369998 6448219
-0.23841763 0.13544652 0.42449999 6448219
-0.23744385 0.13545087 0.42449999 6448219
-0.23691566 0.13571058 0.4253 6448219
-0.23594005 0.13571508 0.4253 6645598
-0.23540643 0.1359749 0.42609999 6513755
-0.23442906 0.13597952 0.42609999 6513755
-0.22954239 0.13600343 0.42609999 6382169
-0.228136 0.13575302 0.4253 6513755
-0.22673324 0.13550262 0.42449999 6448219
-0.22448327 0.13474154 0.42209998 6448219
-0.22219138 0.1339485 0.41959998 6448219
-0.22043814 0.13347472 0.4181 6448219
-0.21821934 0.13271362 0.41569999 6448219
-0.20662017 0.12907274 0.40419999 6711134
-0.2045735 0.12837543 0.40199998 6579805
-0.20253697 0.12767811 0.3998 6579805
-0.2012669 0.12745979 0.39909998 6579805
-0.19964865 0.12701797 0.39769998 6579805
-0.19873638 0.12702329 0.39769998 6448219
-0.19747593 0.12680507 0.39699998 6448219
-0.19616915 0.12655492 0.3962 6776930
-0.19457027 0.12611313 0.39479998 6711137
-0.1936646 0.12611857 0.39479998 6514530
-0.19275883 0.12612402 0.39479998 6514530
-0.19185308 0.12612954 0.39479998 6448484
-0.19060872 0.12591141 0.39409998 6514277
-0.18970449 0.12591699 0.39409998 6514530
-0.18880023 0.12592259 0.39409998 6514530
-0.18789594 0.12592821 0.39409998 6448737
-0.18665944 0.1257102 0.39339998 6514528
-0.18575667 0.12571588 0.39339998 6580321
-0.18485387 0.1257216 0.39339998 6580321
-0.18362366 0.12550361 0.39269999 6514528
-0.0078584459 0.14019962 0.43539998 5394502
-0.0068552298 0.14049061 0.43629998 5460295
-0.0058357446 0.14049174 0.43629998 5525575
-0.0048162355 0.14049278 0.43629998 5657161
-0.0037888719 0.14020398 0.43539998 5722954
-0.0027606015 0.1396575 0.4337 5657161
-0.0017402559 0.13911094 0.43199998 5788747
-0.00073071365 0.13911173 0.43199998 5920333
0.0002772318 0.13830742 0.42949998 5986126
0.02896894 0.11314712 0.35139999 7236708
0.029552536 0.11224438 0.3486 7302501
0.030366937 0.11224315 0.3486 7368294
0.03088613 0.11117933 0.34529999 7499878
0.031500019 0.11050188 0.3432 7499878
0.032198191 0.11014637 0.34209999 7499878
0.032949064 0.109984 0.3416 7499878
0.033746965 0.10998257 0.3416 7302499
0.03454484 0.10998109 0.3416 7368292
0.035280604 0.10978638 0.34099999 7434085
0.036077011 0.10978482 0.34099999 7499878
0.036938261 0.10997637 0.3416 7499876
0.037669718 0.10978156 0.34099999 7499876
0.038466018 0.10977986 0.34099999 7434083
0.039331373 0.10997128 0.3416 7434083
0.040129002 0.10996948 0.3416 7302497
0.040926591 0.10996765 0.3416 7368290
0.04178521 0.11012672 0.34209999 7368290
0.042646129 0.11028577 0.34259999 7236704
0.043522015 0.11047694 0.3432 7302497
0.044387758 0.11063586 0.34369999 7302497
0.045255791 0.11079476 0.34419999 7302497
0.046059195 0.11079264 0.34419999 7368290
0.046944257 0.11098363 0.3448 7368290
0.047901317 0.1113355 0.3459 7368290
0.048863448 0.1116873 0.347 7302497
0.049816359 0.11200688 0.34799999 7302497
0.050715704 0.11219763 0.3486 7236704
0.051617786 0.11238835 0.34919998 7236704
0.052432533 0.11238591 0.34919998 7236704
0.053323474 0.11254437 0.3497 7105118
0.05413929 0.11254186 0.3497 7105118
0.054955047 0.1125393 0.3497 7105118
0.055770747 0.11253671 0.3497 7105118
0.056586411 0.11253406 0.3497 7105118
0.057319932 0.11237047 0.34919998 7105118
0.058134299 0.11236776 0.34919998 7039327
0.058948625 0.11236501 0.34919998 6973534
0.059660207 0.11216917 0.3486 6907741
0.060368933 0.11197329 0.34799999 6776155
0.061180286 0.11197045 0.34799999 6578776
0.061902508 0.11180666 0.3475 6578776
0.062622346 0.11164286 0.347 6578776
0.063321501 0.11144687 0.34639999 6578776
0.064036325 0.11128302 0.3459 6578776
0.064730003 0.11108696 0.34529999 6512983
0.065325938 0.11073004 0.34419999 6184018
0.066128016 0.11072697 0.34419999 5986639
0.066832803 0.11056302 0.34369999 6051149
0.067633592 0.11055988 0.34369999 5656391
0.068215288 0.11020287 0.34259999 5393219
0.068691075 0.10968501 0.34099999 5195840
0.069179721 0.10919932 0.33949998 5130045
0.069743767 0.10884228 0.33840001 5130045
0.07011503 0.10819577 0.3364 5130299
0.070561238 0.10767794 0.3348 5130299
0.071021207 0.10719222 0.33329999 5130299
0.071474135 0.10670652 0.33179998 5064506
0.071811147 0.10606002 0.32979998 4932407
0.072578929 0.10605671 0.32979998 4669235
0.073124245 0.10573179 0.32879999 5063731
0.073574953 0.10527825 0.3274 5655868
0.07410989 0.1049533 0.32639998 6049341
0.074433669 0.10433897 0.32449999 6575685
0.074748538 0.10372466 0.32259998 6970958
0.074937485 0.10294961 0.3202 7431509
0.075138852 0.10220674 0.3179 7104859
0.075233951 0.10133528 0.3152 7104859
0.07541284 0.10059246 0.31290001 7105122
0.076140657 0.10058904 0.31290001 7236708
0.07632792 0.099878386 0.3107 7236708
0.076529697 0.099199906 0.30859998 7236708
0.07679674 0.098617874 0.30679998 7236706
0.076979563 0.097939447 0.30469999 6973534
0.077152565 0.097261049 0.3026 7038296
0.077547282 0.096871927 0.30140001 7038296
0.07780654 0.096322112 0.29969999 6906447
0.078188822 0.095933013 0.2985 6840654
0.078882575 0.095929578 0.2985 7102540
0.079256348 0.095540471 0.29729998 7102540
0.079732068 0.095279932 0.2965 7168074
0.080095507 0.094890855 0.29530001 7102281
0.080453284 0.094501778 0.29409999 7036486
0.080833048 0.094144851 0.29299998 6970693
0.081179805 0.093755797 0.29179999 6970693
0.081548966 0.093398891 0.29069999 6575935
0.081884682 0.093009867 0.2895 6707521
0.08212921 0.092524484 0.28799999 6707523
0.082797952 0.092520997 0.28799999 6773316
0.083031915 0.092035629 0.28650001 6511175
0.083141983 0.09142179 0.28459999 6379589
0.083390415 0.090968609 0.2832 6643538
0.083513573 0.090386949 0.2814 6314573
0.083837673 0.090030164 0.28029999 5723985
0.084066197 0.089577034 0.2789 6447708
0.084166668 0.088995464 0.2771 6842725
0.08428932 0.088446043 0.27539998 6447967
0.084280677 0.08776819 0.27329999 6185565
0.084914714 0.087764777 0.27329999 6119772
0.085047863 0.087247543 0.27169999 6251105
0.085141979 0.086698234 0.26999998 6514277
0.085355237 0.086277403 0.2687 4080710
0.085562408 0.085856594 0.2674 4014917
0.085763492 0.0854358 0.26609999 3884362
0.086055882 0.085111357 0.2651 4015948
0.086376272 0.084819049 0.2642 5199452
0.086758278 0.084590942 0.26350001 5331038
0.087369099 0.084587567 0.26350001 5331038
0.087779529 0.084391564 0.26289999 5199452
0.088187121 0.084195599 0.26229998 5133657
0.088591889 0.083999641 0.2617 4936278
0.089061975 0.08386787 0.2613 4803912
0.089564495 0.083768226 0.26100001 5132877
0.090065561 0.08366856 0.26069999 5918786
0.09056519 0.083568916 0.2604 5063477
0.090958349 0.083372995 0.25979999 4732711
0.091454402 0.083273351 0.2595 5193262
0.092055455 0.083269991 0.2595 6641478
0.092549331 0.083170369 0.25920001 12957606
0.093041748 0.083070733 0.25889999 16776162
0.093424261 0.082874879 0.25830001 16776676
0.093803927 0.082679018 0.2577 16777182
0.094180763 0.082483172 0.25709999 16117967
0.094665378 0.082383595 0.2568 16046779
0.095037259 0.082187772 0.25619999 16046779
0.095518313 0.082088225 0.2559 14730919
0.095997937 0.081988685 0.25560001 15450529
0.096589483 0.081985362 0.25560001 14989978
0.097066931 0.081885822 0.25529999 13478274
0.097657695 0.081882522 0.25529999 15123099
0.098132983 0.081783012 0.255 16775882
0.098722994 0.081779718 0.255 16773826
0.099312931 0.081776418 0.255 13938564
0.099902853 0.08177314 0.255 12096360
0.1003745 0.081673667 0.25470001 13014645
0.10084473 0.081574194 0.25439999 16767930
0.10143314 0.081570938 0.25439999 16767152
0.10202151 0.081567682 0.25439999 14001790
0.10260985 0.081564434 0.25439999 16502694
0.10319816 0.0815612 0.25439999 16766637
0.10378642 0.081557959 0.25439999 14005136
0.10437465 0.081554741 0.25439999 9794384
0.10496286 0.081551507 0.25439999 6705986
0.10555101 0.081548311 0.25439999 6377021
0.10613915 0.081545107 0.25439999 8156523
0.10685313 0.08163809 0.25470001 12104103
0.10744188 0.081634901 0.25470001 12040370
0.10803062 0.081631728 0.25470001 10658717
0.10861932 0.081628561 0.25470001 8553090
0.109208 0.081625409 0.25470001 9211020
0.10979666 0.081622288 0.25470001 9803410
0.11038528 0.081619151 0.25470001 8948101
0.11097387 0.081616037 0.25470001 7566195
0.11143102 0.08151681 0.25439999 7237230
0.11201888 0.081513718 0.25439999 10527133
0.11247393 0.081414528 0.25409999 11842993
0.11306104 0.081411473 0.25409999 11908786
0.11364813 0.081408441 0.25409999 11908786
0.11437007 0.081501521 0.25439999 9803410
0.11495782 0.081498511 0.25439999 8485757
0.1156818 0.081591628 0.25470001 8485757
0.11627021 0.081588641 0.25470001 10854558
0.1168586 0.081585683 0.25470001 11775660
0.11744696 0.08158274 0.25470001 11445400
0.11789629 0.081483707 0.25439999 9734782
0.11848394 0.081480794 0.25439999 11902342
0.11907157 0.08147791 0.25439999 13941925
0.11951807 0.081378952 0.25409999 12754301
0.1199632 0.08128003 0.2538 13806989
0.12054941 0.081277207 0.2538 13869954
0.12113563 0.081274405 0.2538 14264712
0.12157792 0.081175543 0.25349998 15843229
0.12216343 0.081172787 0.25349998 15053713
0.12260365 0.08107397 0.25319999 14989201
0.12318845 0.081071272 0.25319999 16568233
0.12377325 0.081068583 0.25319999 16773570
0.12435804 0.081065908 0.25319999 16773570
0.12494283 0.081063271 0.25319999 16774340
0.12537889 0.080964603 0.2529 16776396
0.12586336 0.080897972 0.2527 16775388
0.12644701 0.080895402 0.2527 14470577
0.12703064 0.080892861 0.2527 9930876
0.1276143 0.080890335 0.2527 9272946
0.12819795 0.080887839 0.2527 9404795
0.12878159 0.080885373 0.2527 8944244
0.12946764 0.08094693 0.2529 6904400
0.13005178 0.080944516 0.2529 6575435
0.13079089 0.081038147 0.25319999 7299921
0.13168707 0.081227809 0.2538 7299921
0.13227332 0.081225455 0.2538 7497300
0.13301662 0.081319146 0.25409999 7562578
0.13376132 0.081412852 0.25439999 7496785
0.13450745 0.081506602 0.25470001 6905163
0.13509585 0.081504367 0.25470001 6839370
0.13568427 0.081502154 0.25470001 6840138
0.13627267 0.081499979 0.25470001 6774345
0.13669991 0.081401825 0.25439999 7365966
0.13712581 0.081303723 0.25409999 7629138
0.13755034 0.081205659 0.2538 7497039
0.13797352 0.081107624 0.25349998 6312765
0.13855931 0.081105612 0.25349998 6049852
0.13898043 0.081007659 0.25319999 6115645
0.13928998 0.080845751 0.2527 7365199
0.13970795 0.080747865 0.25239998 7825750
0.14012457 0.080650017 0.25209999 7759187
0.14070728 0.080648184 0.25209999 7824980
0.14129002 0.080646388 0.25209999 6641993
0.14170398 0.080548652 0.2518 6641993
0.14228608 0.080546923 0.2518 6577230
0.14269802 0.080449261 0.25149998 6643023
0.14327952 0.080447599 0.25149998 6709331
0.14386107 0.080445983 0.25149998 6709331
0.14461496 0.080540366 0.2518 6511698
0.14519729 0.080538809 0.2518 6643284
0.14577968 0.080537289 0.2518 6972249
0.1463621 0.080535822 0.2518 7169628
0.14694457 0.080534384 0.2518 6709079
0.14752711 0.080532975 0.2518 6511700
0.14810967 0.080531627 0.2518 7103835
0.14869231 0.080530301 0.2518 7103835
0.14927499 0.080529012 0.2518 7432800
0.15003629 0.080623701 0.25209999 7498593
0.15061978 0.080622509 0.25209999 7432800
0.1512033 0.080621332 0.25209999 7302499
0.15196757 0.080716141 0.25239998 7434085
0.15273325 0.080811001 0.2527 7369067
0.15331838 0.080809951 0.2527 7500653
0.15390359 0.080808938 0.2527 7369069
0.1546111 0.080871925 0.2529 7500655
0.15538096 0.080966935 0.25319999 7303023
0.15596755 0.08096604 0.25319999 6908265
0.15673967 0.081061132 0.25349998 6513250
0.15751325 0.081156276 0.2538 6447457
0.1582883 0.081251442 0.25409999 5986387
0.1590648 0.081346661 0.25439999 6052180
0.15984277 0.081441924 0.25470001 6118225
0.16043326 0.081441283 0.25470001 6184018
0.16121349 0.081536628 0.255 6380882
0.16218556 0.081727944 0.25560001 6380882
0.16296943 0.081823379 0.2559 6249296
0.16394652 0.082014769 0.25650001 6249296
0.1649265 0.082206212 0.25709999 6380884
0.16590932 0.082397692 0.2577 6512470
0.16689506 0.082589239 0.25830001 7103837
0.16788365 0.082780808 0.25889999 7432802
0.16887516 0.08297243 0.2595 7432802
0.16947764 0.082972258 0.2595 7169630
0.17067011 0.083259895 0.2604 7169630
0.17166954 0.083451666 0.26100001 7301216
0.1729359 0.08377137 0.26199999 7169630
0.17414077 0.084059149 0.26289999 7038044
0.17534989 0.08434698 0.2638 6643286
0.17663002 0.084666841 0.26479998 6248528
0.17791493 0.084986761 0.2658 6116940
0.17913741 0.085274741 0.2667 6116940
0.17975761 0.085275017 0.2667 5656389
0.18105425 0.085595094 0.26769999 5195838
0.18208413 0.085787304 0.2683 5261631
0.18338938 0.086107485 0.26929998 5393217
0.18449441 0.0863318 0.26999998 5393217
0.18580848 0.086652085 0.271 5393217
0.18692099 0.086876504 0.27169999 5393217
0.18824391 0.087196894 0.27269998 5525573
0.18957165 0.087517373 0.2737 5459780
0.1906957 0.087741964 0.2744 5526088
0.19133504 0.087742768 0.2744 5723467
0.19267409 0.088063419 0.27539998 6052432
0.19429879 0.088512026 0.27680001 6052432
0.19564836 0.088832788 0.27779999 5921618
0.19707343 0.089185588 0.2789 5987411
0.19843289 0.089506485 0.27989998 6250840
0.19986825 0.089859404 0.28099999 6316633
0.20130892 0.090212405 0.28209999 6645346
0.2027549 0.090565473 0.2832 6645346
0.20420611 0.090918623 0.2843 6447967
0.20486996 0.090920039 0.2843 6645346
0.20604001 0.091145374 0.285 6579300
0.20750362 0.091498703 0.2861 6579300
0.20897251 0.091852106 0.2872 6317151
0.21022773 0.092109635 0.28799999 6448737
0.21141361 0.092335247 0.28869998 6514528
0.21297026 0.092720851 0.2899 6448735
0.21423787 0.092978582 0.29069999 6448735
0.21573119 0.09333235 0.29179999 6448735
0.21700735 0.09359023 0.29260001 6317151
0.2176922 0.093592279 0.29260001 6317151
0.21897431 0.0938503 0.29339999 6448737
0.22048491 0.094204344 0.29449999 6448737
0.22207598 0.094590463 0.29569998 6317151
-0.29524961 0.13074674 0.40719998 3620155
-0.29488546 0.1310026 0.40799999 3685948
-0.29444572 0.13122642 0.40869999 3949120
-0.2940748 0.13148245 0.4095 4146499
-0.29370034 0.13173857 0.41029999 4277315
-0.29325098 0.13196264 0.41099998 4606280
-0.29286975 0.13221893 0.4118 4869705
-0.292485 0.13247527 0.41259998 5198670
-0.29153147 0.13247484 0.41259998 5197900
-0.29107109 0.13269925 0.41329998 4276798
-0.29067788 0.13295585 0.41409999 3158058
-0.28972146 0.13295569 0.41409999 3881781
