# .PCD v0.7 - Point Cloud Data file format
VERSION 0.7
FIELDS x y z rgb
SIZE 4 4 4 4
TYPE F F F U
COUNT 1 1 1 1
WIDTH 1102
HEIGHT 1
VIEWPOINT 0 0 0 1 0 0 0
POINTS 1102
DATA ascii
0.077429511 0.057411168 0.30237335 6112566
0.082692929 0.056709681 0.30251154 5848884
0.087380275 0.055929009 0.30206069 6507327
0.092465721 0.055923667 0.30201 9201234
0.097218454 0.055695105 0.30147913 9463891
0.10085303 0.05521917 0.30039999 11575184
0.067037597 0.062421981 0.30241427 5854536
0.068116277 0.067195237 0.30258143 5197899
0.068810105 0.072200336 0.3024421 5132108
0.069433101 0.077002168 0.30276424 5395018
0.070601597 0.079088964 0.30134282 5263437
0.069969013 0.08027932 0.30469999 5788749
0.071872815 0.082588434 0.30228275 6118225
0.073383696 0.087355807 0.30263931 6971214
0.074475959 0.09126737 0.30305001 7167822
0.075768106 0.093067117 0.30182144 7037006
0.077686645 0.097650975 0.30219582 6972760
0.079269744 0.10234922 0.30258334 6974051
0.080579571 0.10331588 0.30122221 6842466
0.079719827 0.10597576 0.30449998 6710622
0.081871592 0.10786258 0.30258664 6645084
0.083362892 0.11237 0.30238619 6578005
0.084158152 0.11698534 0.30241251 4603700
0.085252605 0.11955959 0.30183333 4473397
0.086923748 0.12270664 0.30234396 4604981
0.20166433 0.029175023 0.30786249 7697000
0.18458422 0.034342404 0.30989999 2698283
0.18796633 0.033394232 0.30875215 2370089
0.19230071 0.032656711 0.30775675 2238241
0.1974718 0.031304829 0.30754757 8025183
0.20005414 0.030461732 0.3073 9471088
0.2092918 0.031210842 0.30509999 6842981
0.21061671 0.030590061 0.30509999 6777445
0.16322982 0.039288286 0.30845881 4342327
0.16745813 0.038560156 0.30735421 4012597
0.17266075 0.038169611 0.30785131 3882299
0.17756277 0.037921738 0.3075265 7895929
0.18248355 0.037085146 0.3073574 6909293
0.18678847 0.0359529 0.30639088 2632750
0.1289449 0.044139266 0.30910772 4544611
0.13247599 0.043673471 0.30783057 3885656
0.13722201 0.043609269 0.30736157 6516602
0.14216977 0.044070203 0.30764499 6845051
0.14751315 0.044333197 0.30858094 3885142
0.1527666 0.043651566 0.30770558 2568238
0.15747629 0.041928299 0.30753106 2436388
0.16197377 0.040436648 0.30695999 3290925
0.16739428 0.040246632 0.30526665 3026212
0.17230512 0.040448785 0.30541813 5723724
0.17608853 0.040204663 0.30509999 3420973
0.10360996 0.049689777 0.30959997 12033931
0.10768865 0.049311243 0.30941537 10786184
0.11284826 0.048200559 0.30785346 11115667
0.11744212 0.047044665 0.3072125 9078147
0.1225765 0.047147091 0.30725828 3884116
0.12737601 0.046389993 0.30691952 4281957
0.13087067 0.045529425 0.30563998 4741221
0.14408731 0.045261241 0.30509999 6055533
0.14774306 0.045401331 0.30611429 4674403
0.15099908 0.045308813 0.30556667 2306625
0.06465032 0.054846372 0.30939999 10126708
0.067732483 0.054194916 0.30917776 10061169
0.072637379 0.054124255 0.30911577 10192755
0.077473357 0.054193608 0.30822223 7559497
0.082655534 0.054076277 0.30776131 6440505
0.087434761 0.053219214 0.30752307 5980726
0.092490956 0.05261286 0.30769658 11639424
0.09749449 0.052117236 0.30740884 11835773
0.10224297 0.051311262 0.3073588 11640459
0.10739536 0.051007107 0.30685863 11050132
0.1107863 0.050532054 0.30614999 11445147
0.064476185 0.057508353 0.30923638 6114623
0.067083433 0.056863092 0.30713636 9008996
0.072467573 0.055865623 0.30652171 10258292
0.077557437 0.055929966 0.30607998 5782317
0.082008824 0.055820454 0.30570906 6834748
0.064476214 0.062775791 0.30812219 4604477
0.065179646 0.06265936 0.30524284 4341561
0.063876808 0.066620104 0.3089737 4867908
0.066321813 0.068101369 0.30664164 5263437
0.067278408 0.072297104 0.30807745 5723470
0.068830177 0.077530809 0.30748749 5657419
0.069512121 0.081994034 0.30846667 6577231
0.070429288 0.083520927 0.30644995 6774350
0.069663994 0.085933603 0.30973333 7627344
0.07149113 0.087571345 0.30731252 7496271
0.073464997 0.092364073 0.30755416 7233614
0.075288378 0.094942473 0.3064 7103574
0.074428558 0.095677309 0.30874997 7169882
0.076212078 0.097595975 0.30730668 7104862
0.078172877 0.1021901 0.30750585 6973793
0.079497844 0.1072933 0.30776247 6644571
0.080563501 0.10941608 0.30574998 6578775
0.08117573 0.11251674 0.30697495 5130043
0.083090045 0.11717562 0.30783325 4538420
0.19199768 0.018353121 0.31426919 7763567
0.18963306 0.024628092 0.31469998 8617580
0.19144632 0.024626093 0.31469998 10196611
0.18403547 0.029111516 0.3133857 1976354
0.18750155 0.027569313 0.31236938 2041629
0.1923238 0.027477022 0.31298608 4539706
0.19676068 0.028506877 0.31421247 7367261
0.20307364 0.029015228 0.31313568 8091500
0.17299017 0.034731582 0.31391111 5855575
0.17790404 0.033616405 0.31331003 6448226
0.18255 0.032340307 0.31195775 3027760
0.18685485 0.031089814 0.31048176 2107169
0.19233316 0.030464433 0.31086662 1975837
0.19739582 0.03052292 0.31180769 6052682
0.20121448 0.030189805 0.31185001 9668466
0.13364743 0.039724641 0.31395715 6713723
0.13550757 0.039584201 0.31426665 8094860
0.15318781 0.039468192 0.31376001 3357493
0.15765862 0.038613208 0.31316003 2764841
0.16226555 0.038141936 0.31287038 4343100
0.16758168 0.03686801 0.31244799 4999232
0.1721786 0.035803892 0.31174999 5921880
0.17732379 0.035494711 0.31085712 7172462
0.18124588 0.035114281 0.31029999 8882310
0.1143823 0.044572726 0.31449997 1912894
0.1179112 0.044444926 0.3131333 1781568
0.12269912 0.044030409 0.31319258 3295576
0.12746993 0.042592611 0.31254667 4346463
0.13212308 0.041177738 0.31208572 3753042
0.13776962 0.041295439 0.31234136 7568773
0.14269052 0.042007953 0.31253213 6187383
0.1478052 0.042074211 0.31264845 2504514
0.1522069 0.041552618 0.31205589 2502697
0.15715957 0.040701382 0.31119999 2502180
0.16050558 0.040212918 0.31029999 3160368
0.078569531 0.049464162 0.3145 9667183
0.093966566 0.049430467 0.31459996 11967614
0.097970717 0.048755191 0.31342959 12362117
0.10250158 0.047927722 0.312437 13085068
0.10759826 0.047036756 0.31224003 10389881
0.11207913 0.046185598 0.31216666 8486010
0.11686718 0.045364041 0.31079999 3290945
0.12263437 0.045425419 0.31052855 3032148
0.069278091 0.052885685 0.3107 10192755
0.07272438 0.052402209 0.31162274 9732975
0.077520043 0.051740963 0.31232119 9601390
0.0824233 0.051714901 0.31240886 6440249
0.087646239 0.051366381 0.31262222 6112054
0.09259887 0.050922453 0.31248182 11573630
0.096862957 0.050541814 0.31151429 12230531
0.063725553 0.05896496 0.31156248 6576462
0.063352063 0.06260442 0.31201813 6446421
0.062738173 0.068185188 0.31124735 6381400
0.063248307 0.072486825 0.31310961 5920851
0.065637246 0.073151104 0.31150833 4276281
0.064686008 0.075829081 0.31456664 4934214
0.067075193 0.07746578 0.31238067 5657160
0.068058416 0.082580119 0.31286561 7036234
0.068454415 0.087095015 0.31301853 7430221
0.070533514 0.089051507 0.31107998 7627601
0.071846291 0.092515878 0.31254998 7233357
0.073844917 0.096690774 0.31264544 7498074
0.075534292 0.099059418 0.31167144 7236707
0.076945499 0.10231289 0.31286663 6907999
0.078947 0.10736884 0.31262857 6710106
0.079671383 0.11196569 0.31249234 5130041
0.080272049 0.11448445 0.31133333 4736055
0.19125056 0.018106561 0.31733465 8157812
0.18880975 0.02372402 0.31769168 6709842
0.19216943 0.022116333 0.31615278 8354930
0.19710857 0.024133962 0.31597996 7697515
0.20193042 0.024881324 0.31806669 7237738
0.18316613 0.028871462 0.31757143 2107424
0.18624513 0.02639713 0.31719998 2041627
0.19392952 0.025395656 0.3152 9604218
0.19813012 0.026734505 0.31593001 8814448
0.20255727 0.027625507 0.31696674 7960170
0.20556353 0.027410656 0.31744999 7237736
0.15822725 0.033742614 0.31863502 5459525
0.16246167 0.033455525 0.31851113 5524544
0.16772296 0.033562947 0.31885561 5525576
0.17239659 0.033142582 0.317325 7895158
0.17736167 0.031943005 0.31707421 6908776
0.18067181 0.030401574 0.31698567 2369574
0.10384329 0.039895251 0.3179 9271144
0.10813376 0.039254792 0.31843331 3356229
0.11040258 0.03862226 0.31979999 3818066
0.12784353 0.03933721 0.31817502 3622741
0.13249899 0.038606785 0.31758699 5332842
0.13747664 0.03851999 0.31752175 8028554
0.14240383 0.038948346 0.31800452 3162195
0.14766692 0.038697489 0.31806785 2964805
0.15261015 0.03785184 0.31736946 2896429
0.157205 0.036177509 0.31679007 2698535
0.1627702 0.036031008 0.31630868 5131071
0.16725837 0.035721619 0.31644449 4802111
0.17030162 0.035035841 0.31584999 3091243
0.09317483 0.044147182 0.31832999 11376252
0.097999804 0.043062724 0.31773335 12296580
0.10251329 0.042778511 0.31723884 11178360
0.10738711 0.042827904 0.31699568 3948871
0.11220215 0.042761192 0.31773108 1585476
0.11715 0.042998925 0.31769198 1520197
0.12252168 0.04175121 0.31759393 3821151
0.12636082 0.041014321 0.31599376 4741477
0.14246368 0.040209036 0.3154833 4082525
0.1467883 0.040552851 0.31539997 2307909
0.079950124 0.048527244 0.31559998 10127474
0.082722418 0.048869036 0.3163591 9533799
0.087753929 0.047794372 0.31756198 10455153
0.092246823 0.047322605 0.3169308 11441787
0.097151726 0.046408925 0.31646252 12230788
0.10207506 0.045724329 0.31570908 13019274
0.10659922 0.045434583 0.3152 12230791
0.084407024 0.050266054 0.31579998 5913907
0.086531855 0.05016036 0.31595001 5848626
0.063088134 0.059735503 0.3161 7498072
0.062967926 0.061468326 0.315525 7300700
0.062343609 0.067131661 0.31617999 7103579
0.06140627 0.074004799 0.31716669 5985866
0.063927695 0.076884106 0.31687498 6182478
0.065472521 0.078775369 0.31634998 6115909
0.06618619 0.082336523 0.31696251 6969668
0.066946611 0.087760352 0.3171533 6509634
0.068796605 0.091737889 0.31774166 6115136
0.070727646 0.09338668 0.31726363 6312769
0.072906196 0.097414672 0.31738824 6839372
0.074593149 0.10093822 0.31807998 7235416
0.076099567 0.10328198 0.31689999 6973275
0.078123011 0.10732403 0.31755623 6710105
0.079345115 0.11266442 0.31742305 4932662
0.19098406 0.017812099 0.32220799 8618617
0.18903069 0.023175368 0.32255292 6380875
0.19033249 0.020747166 0.32255712 9209205
0.15853328 0.029710494 0.32424444 2237983
0.16221295 0.029692564 0.32413328 2303007
0.16750461 0.029968491 0.32449999 8027512
0.17277563 0.02966997 0.32410833 6974315
0.17756699 0.029172106 0.32348093 4670789
0.18244383 0.028312862 0.32286152 2238242
0.18626566 0.026184509 0.32295004 2041372
0.14302778 0.034389861 0.32431996 6974317
0.14748722 0.034192495 0.3243818 11047293
0.1536084 0.034101516 0.32337645 2435876
0.15691091 0.03220658 0.32206663 3421743
0.16248946 0.031159857 0.32153496 4933952
0.1676223 0.031338122 0.321935 6382172
0.17227535 0.031043813 0.32169497 8026745
0.17720757 0.030607251 0.32087496 6908265
0.11300497 0.038018942 0.32192171 3488840
0.11689891 0.038537361 0.323935 2965582
0.12331174 0.039294705 0.32331249 4346980
0.12751679 0.037907287 0.32251999 3885399
0.13229403 0.037019119 0.32263499 7568772
0.13734196 0.036590584 0.32258263 5264998
0.14271633 0.036447946 0.32239085 2767437
0.14751612 0.036300428 0.32235357 6184025
0.15220402 0.035925396 0.32202497 2633256
0.15531276 0.035558999 0.3202 2699304
0.11390467 0.040369179 0.32069999 1585991
0.11787403 0.041243482 0.32119998 1848393
0.12174487 0.040559936 0.32120997 4346982
0.066897333 0.089742631 0.32069999 5194032
0.068646796 0.093327433 0.32125998 5852219
0.069473006 0.095797762 0.32305998 5983802
0.071451604 0.098097801 0.32266247 5852218
0.073863059 0.10225735 0.32295883 6444356
0.075527735 0.1043698 0.32115 7104087
0.076739937 0.10747628 0.32229999 6577489
0.19360505 0.014943099 0.32690001 8749179
0.19187272 0.01769655 0.32772499 9209980
0.17890967 0.024621343 0.32896665 2303522
0.18253516 0.024450317 0.32867494 2238238
0.18802078 0.023884378 0.3277958 3355432
0.19067806 0.021222958 0.327925 9865846
0.15453839 0.028908011 0.32929999 2565920
0.15727293 0.027971847 0.3279162 2434589
0.16268303 0.027818074 0.32774815 3816503
0.16774113 0.028312048 0.32783219 9079944
0.17263091 0.027338514 0.32817432 7764085
0.17720111 0.026646448 0.32745641 3026478
0.18223275 0.026500329 0.32627499 2172447
0.18549557 0.025518216 0.32589999 2303776
0.11836918 0.03480652 0.32797498 11377542
0.12299797 0.034218535 0.32957771 7563364
0.12777317 0.034015186 0.32837391 3950169
0.13243943 0.034075808 0.32784092 6383219
0.13779271 0.034153592 0.327719 2701131
0.14274155 0.033227924 0.32762271 7893616
0.14746927 0.032013148 0.32782814 12690057
0.152547 0.032023456 0.32772383 3156777
0.15556398 0.030656232 0.32651249 2434594
0.11842877 0.036745355 0.32670587 4672337
0.1226392 0.037074115 0.32769325 3490898
0.1270088 0.03618272 0.32671428 4345952
0.13219105 0.035801008 0.32612726 7896451
0.13783874 0.035500597 0.32604286 3884633
0.068620838 0.094835788 0.32539999 5588788
0.069274433 0.097222865 0.32793331 6246205
0.070288651 0.099457972 0.32736665 6509892
0.072039098 0.10281622 0.32759997 5984061
0.07389906 0.10687787 0.32842669 5260856
0.075760745 0.10868432 0.32672 4932663
0.19461626 0.014484186 0.33379999 9275779
0.19547671 0.014461705 0.33329999 8946559
0.19242203 0.017698107 0.33267498 9735550
0.15371178 0.024438517 0.3340857 11245695
0.15751758 0.024214979 0.33340713 6246213
0.16262384 0.024223045 0.33363333 4407359
0.16752388 0.02429276 0.33420908 10198166
0.17279394 0.02376999 0.33298001 3223345
0.17754476 0.022845363 0.33270627 2565922
0.18246859 0.0222001 0.33255002 3486249
0.18748587 0.022026855 0.33267099 6774095
0.19057807 0.021056449 0.33179998 10326137
0.14465196 0.029417802 0.3348 15121050
0.14764239 0.028399607 0.33283749 12821384
0.15229905 0.027336802 0.33156469 8942947
0.15730616 0.025604894 0.33091542 3287075
0.16220638 0.025589788 0.33121666 7566703
0.16771391 0.025985356 0.33147493 8158585
0.17133582 0.025349829 0.33080003 5065547
0.12291361 0.033151366 0.33048186 11048580
0.12780617 0.03172636 0.33160436 8155500
0.13267045 0.031477813 0.33250374 4342865
0.13740484 0.032035086 0.3328 2306887
0.14276874 0.031481773 0.33252004 11377034
0.14578266 0.030796139 0.3308 14267796
0.069224238 0.098202631 0.33269998 6443841
0.069810443 0.10068885 0.3348 6509890
0.070534706 0.10297042 0.33240002 5458233
0.1948676 0.014648986 0.33756664 9867915
0.19532886 0.0138129 0.33634999 9472903
0.16412228 0.019310817 0.33949998 10916730
0.16708313 0.019381793 0.33932856 11048317
0.17311604 0.019497149 0.33949998 11509128
0.17769659 0.019253345 0.33842221 11246983
0.18232884 0.019012239 0.33767331 11246465
0.18787599 0.018821873 0.33749378 10654328
0.19225757 0.017171973 0.33729234 10261380
0.14765196 0.024365807 0.33821112 11441788
0.15247521 0.023755645 0.33751905 11179389
0.15778345 0.022705289 0.33711174 10785403
0.16260409 0.02174492 0.33742008 8220256
0.16772927 0.021817157 0.33746442 7497824
0.1723813 0.021499336 0.33734515 5128767
0.17704864 0.020631187 0.33612356 4603187
0.1823023 0.020261599 0.33637777 7892315
0.18792929 0.020163313 0.3361125 10852736
0.19046788 0.020014068 0.3353 10457976
0.1330916 0.028953509 0.33559996 11639429
0.13778085 0.028241521 0.33729586 10061432
0.14274128 0.027568704 0.33793256 14399129
0.1466451 0.026498193 0.33649525 12952455
0.138423 0.030524734 0.33577141 3816265
0.1417046 0.030593446 0.33583748 11574931
0.069120035 0.0989234 0.33804995 6378306
0.070008986 0.099740148 0.33949998 6575685
0.069677018 0.10222398 0.33858332 5392696
0.0700735 0.10303114 0.33609998 5195060
-0.23284754 0.18131056 0.33803633 462350
-0.22740981 0.18125661 0.33621997 462088
-0.045759175 -0.021093825 0.34462857 1714194
-0.042183038 -0.021297621 0.3441222 2632734
-0.037629668 -0.021162042 0.34448665 2370844
-0.034596071 -0.020940669 0.3448 1912602
-0.045274079 -0.019102041 0.34465 2632983
-0.04206641 -0.018251069 0.34424445 5261110
-0.037377942 -0.017677901 0.34437227 4998452
-0.033863913 -0.017813249 0.3448 4145194
-0.036619455 -0.014867296 0.3448 5848884
0.16833279 0.01468121 0.34299999 11048578
0.17199366 0.014701203 0.34441665 11048319
0.19413111 0.014802139 0.34105 10985626
0.15817195 0.01940302 0.34329164 10785403
0.16260646 0.017931448 0.3421829 10785403
0.16744128 0.017166426 0.34132764 10982783
0.17253223 0.017543754 0.34225482 11311489
0.17744991 0.017553767 0.34267309 11311487
0.18261158 0.017421253 0.34280589 11048572
0.18752423 0.017178638 0.342475 10391157
0.19201656 0.016321491 0.3419857 10984591
0.15335718 0.022124372 0.34176999 10982523
0.15717235 0.021093272 0.34119046 10785658
0.16024815 0.020731922 0.34 10719865
0.14101756 0.025919534 0.34 14464664
0.068414614 0.094328016 0.34130001 5655099
0.068747036 0.097760804 0.34283632 6049855
-0.026616527 -0.031155597 0.34910908 10833702
-0.022190467 -0.032119177 0.34865361 10438947
-0.018016063 -0.032089502 0.34905908 9848870
-0.060944837 -0.026392162 0.34927145 6641998
-0.057569619 -0.026439264 0.34891757 7425595
-0.05371483 -0.025980704 0.34936666 7882285
-0.04283252 -0.025726855 0.34944999 8666652
-0.037257276 -0.026053473 0.34935001 8798242
-0.032142874 -0.027409574 0.34875518 9192225
-0.02727858 -0.027554957 0.34752628 8801584
-0.022201583 -0.027599063 0.34695837 7031861
-0.017801186 -0.027722036 0.34847668 4737587
-0.060903504 -0.022994993 0.34946921 4868670
-0.05739098 -0.022780193 0.34852499 3159333
-0.052329872 -0.022713244 0.34736663 3290660
-0.047748573 -0.023057101 0.34715861 4407084
-0.042555675 -0.023932036 0.34717777 6442557
-0.037474293 -0.023685576 0.34690002 5918014
-0.032600041 -0.02275968 0.34632063 4080175
-0.027430682 -0.022655416 0.34616646 2767395
-0.022249589 -0.022710081 0.34733889 2899742
-0.018523227 -0.02370934 0.34879997 2243353
-0.060444757 -0.019982904 0.3497 4212023
-0.057198644 -0.018708406 0.34916082 2700579
-0.052291214 -0.01760697 0.34797439 1715222
-0.047658011 -0.017443048 0.34652644 4145710
-0.042760845 -0.015974989 0.34549999 5851703
-0.032072447 -0.017687762 0.34544408 4080427
-0.027361427 -0.017549563 0.34661302 2834722
-0.023281885 -0.017950058 0.34849128 2704927
-0.05105361 -0.014248529 0.3497 3685423
-0.046999604 -0.013392147 0.34876516 5589820
-0.042634625 -0.01253632 0.34774286 4798247
-0.037685119 -0.012382645 0.34679002 5189154
-0.032578181 -0.012423151 0.34741303 6114364
-0.027842699 -0.013027789 0.34866136 4738100
-0.024435656 -0.01426345 0.3497 4281136
-0.041646823 -0.0093279565 0.3497 5522741
-0.037514571 -0.0090738032 0.34935001 6048570
-0.032616656 -0.0093259392 0.3495 6378306
0.17374694 0.013416167 0.34580001 10653561
0.17746915 0.013213917 0.34762776 10193780
0.18160786 0.013959062 0.34943333 9997172
0.15984276 0.018272931 0.3459 10653818
0.17499071 0.015031144 0.3459 11179648
0.17739993 0.015433064 0.34593749 10916732
0.18229318 0.015578281 0.34720773 10522743
0.18688154 0.015741229 0.34728181 10193779
0.19137126 0.015826602 0.34599999 10852486
0.068167217 0.093155265 0.3475455 6378568
0.06794937 0.097546399 0.34708336 6050887
-0.021030106 -0.040295366 0.35479999 9983552
-0.017257404 -0.040438566 0.35420001 10048828
-0.012883797 -0.040636905 0.35441816 10243888
-0.0097963512 -0.040303979 0.35479999 11490613
-0.026434731 -0.036093436 0.35369998 9851186
-0.022334179 -0.037373178 0.35222593 9982261
-0.017545879 -0.037465919 0.35162994 10375729
-0.012589129 -0.037270814 0.35311142 10702379
-0.009797968 -0.037390392 0.35479999 10309166
-0.066937163 -0.030999457 0.35389996 8747375
-0.062451955 -0.030831188 0.35306248 8996913
-0.058515448 -0.030448435 0.35374999 10768943
-0.041146897 -0.030455215 0.35435 10439976
-0.03727195 -0.030835927 0.3534067 10440232
-0.032399643 -0.031961285 0.35286251 10374955
-0.027803211 -0.033145163 0.3515 10309163
-0.022839207 -0.034672439 0.35056248 10178606
-0.016548149 -0.033751521 0.35040715 10374184
-0.012627607 -0.032319222 0.35248333 7360829
-0.0095142527 -0.03194863 0.35446665 4279090
-0.067019805 -0.027182121 0.35363075 5788748
-0.063067183 -0.027770525 0.35113177 7429971
-0.057206221 -0.028592961 0.35152498 9059099
-0.052515186 -0.027622068 0.35281578 9190166
-0.047159724 -0.026899107 0.3522889 8993047
-0.042358313 -0.028007636 0.35231248 9911831
-0.03741755 -0.028142776 0.35085997 9911572
-0.033100501 -0.029509623 0.35042498 10701086
-0.015438406 -0.027467167 0.35044286 3227688
-0.01268653 -0.027293779 0.35250264 3031334
-0.009517571 -0.027791211 0.35453331 3557672
-0.065559663 -0.023070818 0.35404286 7368031
-0.063104868 -0.022173263 0.35133496 6841690
-0.020381141 -0.020475788 0.35055 2900506
-0.017058639 -0.021850249 0.35182223 4279083
-0.01346188 -0.022919549 0.35404763 5985848
-0.062093761 -0.01731394 0.352337 7763305
-0.057999674 -0.016191468 0.3511588 2963239
-0.05457842 -0.015373606 0.35046664 1779475
-0.02136674 -0.016723655 0.35164115 2966560
-0.018344043 -0.01780585 0.35334778 5788725
-0.060987744 -0.013878298 0.35440001 8223601
-0.057227317 -0.012598837 0.35361379 3224613
-0.05252412 -0.012086997 0.35183126 4012588
-0.04833696 -0.011293068 0.35074285 5721406
-0.026625585 -0.010752779 0.35045004 5985344
-0.022502134 -0.012248678 0.35252285 3884325
-0.019382279 -0.014473449 0.35479999 4671018
-0.055533528 -0.0094579607 0.35479999 3488300
-0.052129749 -0.0087898159 0.35420719 5130297
-0.047197055 -0.0080515351 0.35299999 5128500
-0.042488068 -0.0070676934 0.35242188 5654326
-0.037343331 -0.0067237611 0.35201111 5983803
-0.032353815 -0.0069846688 0.35179996 6312000
-0.027507801 -0.0073286239 0.35226658 6640964
-0.023025105 -0.0074989744 0.35365334 6312513
-0.041425038 -0.0040482595 0.35479999 4733740
-0.037394308 -0.0037943493 0.35440001 4931376
-0.032648388 -0.0036268292 0.35426661 5588792
-0.027904425 -0.0038658478 0.35428566 6180414
-0.024357665 -0.0040473789 0.3545 6509122
0.066842556 0.08958967 0.35390002 7236191
0.068112276 0.092677906 0.3529 6972248
-0.012760798 -0.04554667 0.35925001 9057805
-0.0087093124 -0.045972098 0.35914284 8270104
-0.025094088 -0.04081396 0.3594 10312519
-0.022080671 -0.041624695 0.35776365 10180933
-0.017681727 -0.042579155 0.35723332 10048313
-0.012518786 -0.043118112 0.35676187 9716252
-0.0083602648 -0.042571642 0.35761195 10504744
-0.046978638 -0.036907487 0.35889229 10179898
-0.043273274 -0.036241546 0.35886663 9850419
-0.031173872 -0.036474843 0.35823333 10114104
-0.028179279 -0.037516773 0.35710621 9982777
-0.024586773 -0.039326567 0.35609996 10049089
-0.0077667828 -0.037652273 0.35727498 9459007
-0.071571119 -0.032387249 0.35804617 9143160
-0.067957625 -0.032915749 0.3566933 9073511
-0.062595695 -0.0329943 0.35743636 10507318
-0.057776418 -0.031607628 0.35716364 10702892
-0.053390585 -0.030600445 0.358675 11229490
-0.046344861 -0.032269359 0.35839996 10113586
-0.042560168 -0.032876916 0.35705167 10047793
-0.037781127 -0.033394162 0.35707057 9981999
-0.033411819 -0.034303632 0.35691428 9982000
-0.0075810906 -0.032762345 0.35684285 3622702
-0.070954189 -0.027892951 0.3580125 5854798
-0.069513388 -0.027798217 0.35544997 5854798
-0.051411115 -0.029244384 0.35674283 10701349
-0.048303068 -0.028870843 0.35610911 10438178
-0.0076975557 -0.02753536 0.35688418 3097632
-0.070424967 -0.023028331 0.359 7301471
-0.067853503 -0.022309791 0.3566727 7235933
-0.011677359 -0.021664953 0.35605997 7035963
-0.0091004306 -0.022955198 0.35787502 6378549
-0.06609989 -0.017752167 0.35776001 9012345
-0.06456577 -0.016715666 0.35589996 9407104
-0.016528733 -0.01658709 0.35613075 7693127
-0.012995809 -0.017755505 0.35743427 6837046
-0.0099243401 -0.019292135 0.35909998 5388831
-0.062458124 -0.012304422 0.35701111 10460306
-0.05899848 -0.01073216 0.35570002 3948339
-0.017844953 -0.012437629 0.35692182 6444343
-0.014697882 -0.014364756 0.359 5851694
-0.061189089 -0.0082183834 0.35838333 11052444
-0.05745592 -0.0073729889 0.35740313 3882289
-0.052733462 -0.0064919204 0.35661498 4144430
-0.048101984 -0.0058101714 0.35566002 4799534
-0.02080668 -0.0067025311 0.35539997 6904136
-0.018320518 -0.0074541387 0.35737234 6772289
-0.055415399 -0.0045197988 0.3594 3421991
-0.05188157 -0.0034039214 0.35881045 4866356
-0.047455236 -0.0022925597 0.35759369 5128500
-0.042876922 -0.0020862895 0.35639656 4996913
-0.037692327 -0.0013643774 0.35666358 5457464
-0.032468181 -0.0011372373 0.35685292 5720893
-0.027574722 -0.0014944489 0.35641423 6378564
-0.022537656 -0.0021254148 0.35661507 6706760
-0.018444816 -0.0026329982 0.35835379 7035210
-0.046954971 0.0012038964 0.35897139 5458494
-0.042435974 0.0013348772 0.35879996 5458494
-0.037706885 0.0007521644 0.35894999 5589823
-0.031817704 0.00075225305 0.35894999 5984067
-0.027023964 0.0010605763 0.35889229 6378824
-0.022491261 0.0010338371 0.359 6510153
-0.018792752 0.00054187916 0.3594 6773066
0.064844571 0.08875107 0.35880002 7236707
0.065779574 0.08915168 0.35707501 7236707
-0.23237467 0.16968411 0.35619998 4803910
-0.22562996 0.16808096 0.35846001 5198668
-0.25643373 0.1721127 0.35821664 659727
-0.23585829 0.17011933 0.35709998 5000519
-0.23045412 0.17039321 0.35769999 4803910
-0.22828881 0.17031854 0.35755 4738632
-0.0071654022 -0.051076844 0.36412501 9585458
-0.0049164221 -0.050684668 0.36359999 10707025
-0.020335328 -0.046137072 0.36479998 9847319
-0.016930427 -0.046373278 0.36221051 9452047
-0.012182237 -0.048234433 0.36263332 7545608
-0.0072623505 -0.047926363 0.36179999 8993061
-0.0038369212 -0.047228865 0.36225003 10704962
-0.030601433 -0.040565833 0.36479998 10246726
-0.027115826 -0.041194644 0.36276001 10180933
-0.022476422 -0.043622993 0.36169091 10114105
-0.018818967 -0.044302091 0.3603 9782820
-0.0059366273 -0.042655151 0.36060002 10965297
-0.0036246562 -0.042421076 0.36219999 9789005
-0.070768684 -0.036150873 0.36194998 10193278
-0.067730904 -0.036172085 0.3634364 9595224
-0.064150944 -0.035293993 0.36390001 10967097
-0.050966494 -0.037139766 0.36385712 10178350
-0.048811678 -0.036335312 0.36127502 10310968
-0.041569687 -0.03743187 0.36073846 10179643
-0.037745893 -0.036828592 0.36316666 9982776
-0.032879315 -0.037675358 0.36223999 10048827
-0.029056095 -0.039352585 0.36149999 10114367
-0.0057437229 -0.037259515 0.36160001 7561042
-0.0036939101 -0.037537262 0.36339131 5921101
-0.072575726 -0.032491047 0.36144 8879732
-0.068587534 -0.034949455 0.36045 9862511
-0.061729979 -0.03428058 0.36216003 9979943
-0.057543773 -0.033125084 0.36179999 9715996
-0.052165478 -0.032524716 0.36281052 10573622
-0.048473012 -0.033021823 0.36055002 10048051
-0.037372634 -0.034957286 0.35999998 10048563
-0.0057334062 -0.032524578 0.36083999 3098154
-0.0044948389 -0.032328747 0.36339998 3689525
-0.072750568 -0.028094765 0.36144 5920591
-0.0059340969 -0.027207218 0.36153334 3425828
-0.0045078513 -0.028134484 0.36435002 2768167
-0.071649857 -0.021391183 0.36263999 7893351
-0.069901362 -0.020596789 0.36059999 7695972
-0.007059935 -0.022448482 0.3624 6771766
-0.070832305 -0.018813472 0.36351427 8354158
-0.068417221 -0.017564546 0.36162856 9077625
-0.011433432 -0.015751841 0.36015001 7626561
-0.008582674 -0.017766831 0.36242726 7099706
-0.066107988 -0.012641716 0.36282003 10394000
-0.064388029 -0.011713624 0.36029997 10460050
-0.015315156 -0.011452916 0.36029997 6902582
-0.012178442 -0.012717322 0.36238185 6574133
-0.0089260908 -0.014574529 0.3642 6639671
-0.065511256 -0.0092761274 0.3642 10525073
-0.06304837 -0.0069797211 0.36176002 10920345
-0.059713729 -0.0053710658 0.35999998 11052187
-0.015588637 -0.0074865501 0.36110768 7100994
-0.01346888 -0.007573979 0.36374998 6443319
-0.061281119 -0.0032852266 0.36304998 10854808
-0.05750937 -0.0024231332 0.36199993 6248782
-0.053130656 -0.0013603192 0.36063755 5195321
-0.015723752 -0.0021693858 0.36059999 7167308
-0.012686308 -0.0022282398 0.36319283 6969929
-0.055826526 0.0011186511 0.36389998 5787205
-0.052563827 0.0026805431 0.36289996 4406065
-0.047902454 0.0035883726 0.36092731 4274995
-0.042398103 0.0038412602 0.36047369 5064251
-0.037375916 0.0032111246 0.36098561 5655102
-0.032535277 0.0032105681 0.36090007 5720896
-0.027403042 0.0035650141 0.36054784 5851454
-0.0220678 0.0034762176 0.36067498 5784888
-0.017061714 0.0027876545 0.36056456 6179388
-0.012130639 0.0026728429 0.36209998 7561041
-0.0092280973 0.004408977 0.36479998 7758678
-0.051408514 0.0064644939 0.36424997 3618349
-0.047260366 0.0076777488 0.3631714 2763554
-0.042657107 0.0077190264 0.36224577 3815212
-0.037636258 0.0077811307 0.36233339 5325880
-0.03250901 0.0077749225 0.36196676 5259060
-0.027413525 0.0077757072 0.36191675 5982783
-0.022337792 0.0077841547 0.36221668 6114371
-0.017365774 0.0076730959 0.36277056 6113338
-0.012470396 0.0067403889 0.36326995 7165512
-0.045753025 0.012148336 0.36463633 3487272
-0.04249591 0.012517201 0.36398396 3354918
-0.037729498 0.012494026 0.36323994 5062710
-0.032612782 0.012492822 0.36313993 5456441
-0.027540445 0.012511236 0.36361992 5588540
-0.022692336 0.012081245 0.36406952 5916991
-0.019279769 0.011476775 0.36464998 5520945
-0.041208416 0.015452486 0.36467999 5327166
-0.037583642 0.015904022 0.36442503 5524290
-0.033154529 0.015696613 0.36443076 5852999
-0.029340381 0.015120694 0.36479998 6181707
0.062533565 0.089097708 0.36147693 7170913
-0.23061144 0.16577224 0.3612 5330256
-0.22853923 0.16574411 0.36095998 5462099
-0.26104981 0.17082334 0.3642 2105382
-0.25752136 0.17126206 0.36234549 2106662
-0.25246239 0.17116505 0.36232945 4014916
-0.24734673 0.17308877 0.3624 4804431
-0.016030552 -0.050795235 0.36815998 6624257
-0.012115229 -0.051816572 0.36761424 6689538
-0.008389716 -0.052776836 0.36629999 8927788
-0.02249773 -0.046692323 0.36749998 9781782
-0.017789494 -0.048909374 0.36696997 8334344
-0.027085651 -0.042903766 0.36645001 10312259
-0.02422506 -0.044495568 0.36539999 10245430
-0.0015154574 -0.041083232 0.36539999 8879468
-0.066428393 -0.037155762 0.36652496 10181443
-0.062814228 -0.036408689 0.36805451 9058841
-0.059027065 -0.035804588 0.36904997 9320725
-0.052819531 -0.036268823 0.36665997 10047022
-0.0016424333 -0.037424326 0.36617142 7367257
-0.056794133 -0.03437471 0.36694282 9979168
-0.053594165 -0.034291442 0.36599997 10113844
-0.0024344046 -0.032675464 0.36703527 5265476
-0.0033101391 -0.027449008 0.36738572 4870203
-0.073173121 -0.021938514 0.36539999 8222573
-0.0058163861 -0.021374825 0.36584997 6310445
-0.0042901482 -0.022601763 0.36764666 7429185
-0.071378157 -0.017256893 0.366 9143417
-0.069246441 -0.015758334 0.366 9800835
-0.0059504653 -0.016820187 0.36715996 6837565
-0.0043474748 -0.017642545 0.36869997 7363651
-0.070445679 -0.014972595 0.3678 10064007
-0.068460003 -0.013142901 0.36726001 10327694
-0.010537585 -0.010623397 0.36570001 5586726
-0.0072058393 -0.012605824 0.36735523 6705979
-0.00413513 -0.014189277 0.36899999 7035716
-0.066850401 -0.0076379683 0.36765829 10788758
-0.064928949 -0.0058833947 0.36570001 11051675
-0.011238994 -0.0076250457 0.36620992 6903611
-0.0081068398 -0.0079547418 0.36878636 6641465
-0.065783486 -0.0035184324 0.36842856 11117723
-0.06303034 -0.001811876 0.36675 11052187
-0.0597567 -0.00030679317 0.36539999 12235691
-0.010439588 -0.0032131923 0.36599997 7233611
-0.0084506888 -0.0024763036 0.36832774 5195566
-0.061254784 0.0014218383 0.36863747 11445918
-0.057799958 0.0029999153 0.36683998 8353389
-0.0081410464 0.0027147713 0.36741114 7495762
-0.057205349 0.0072913817 0.36793 8682868
-0.053224638 0.00805052 0.36616668 4341557
-0.049075864 0.0095591415 0.36539999 2960929
-0.01610435 0.0099980338 0.36539999 6508095
-0.011675568 0.0087354388 0.36642 7429454
-0.008582958 0.0071133147 0.36780831 7758676
-0.056036286 0.011817977 0.36903572 8288109
-0.052490104 0.012142827 0.36778066 4341042
-0.048421212 0.012678775 0.36627001 3881518
-0.021767061 0.014064563 0.36591429 6576463
-0.017164554 0.012629925 0.36696926 7035469
-0.012958745 0.010955882 0.36867329 7429970
-0.05186655 0.015877536 0.36939996 5260604
-0.047296267 0.016839668 0.36794999 4800050
-0.04264991 0.017738922 0.36704335 4866355
-0.037331183 0.018681731 0.36649409 5523774
-0.03225534 0.018244931 0.36691302 5787203
-0.027656931 0.017105056 0.36721069 6050120
-0.022835184 0.016427577 0.36778182 6444878
-0.018385319 0.015929475 0.36898181 6707791
-0.041679669 0.021087084 0.36938888 5188635
-0.037417132 0.021333968 0.36860001 5320735
-0.032930825 0.021152057 0.36914995 5583907
-0.25465259 0.16733776 0.36731663 4869962
-0.24716656 0.16540527 0.3678 5198412
-0.25528705 0.1714095 0.3678 4870990
-0.25432143 0.17165728 0.36619997 4541771
-0.016889896 -0.05561202 0.37387499 7279107
-0.014655134 -0.055454262 0.37279999 7344900
-0.020699522 -0.051838856 0.37404999 7281667
-0.017726451 -0.05293664 0.37213182 6754817
-0.01345774 -0.053906851 0.37072858 7017219
-0.025110081 -0.047068238 0.37219998 9912853
-0.022622973 -0.048926026 0.37193331 9254412
-0.019802747 -0.049952298 0.37090001 8334602
-0.061819613 -0.03722271 0.37029999 8927254
-0.0021923282 -0.027083363 0.37045002 5658693
-0.0025911969 -0.021973431 0.37160999 8086863
-0.0022483109 -0.017312746 0.37278003 6508859
-0.0050195218 -0.011192963 0.37029999 7758927
-0.0027289472 -0.012359679 0.37269005 6640961
-0.068448767 -0.0069801197 0.37090001 10920087
-0.0057122372 -0.0072883754 0.37095714 4474151
-0.0029219717 -0.0076730577 0.37306523 4015146
-0.066999659 -0.0020528049 0.37138888 11248796
-0.064882256 -0.00031073188 0.37029999 11183003
-0.005905679 -0.0024953911 0.3714 3555620
-0.0029858416 -0.0026665516 0.37313634 2637347
-0.065661706 0.001942246 0.37332854 11314846
-0.062889777 0.0033443582 0.37165713 11249309
-0.0058023119 0.0025284784 0.37179998 5853761
-0.0035667303 0.0025138801 0.37422863 4539697
-0.062601842 0.0074535697 0.37306085 11380381
-0.059637584 0.0082231713 0.37104002 11379867
-0.0064103007 0.0076726619 0.37231877 7429966
-0.061347965 0.010810099 0.37424996 11642780
-0.058346223 0.012720901 0.37172499 11906208
-0.015450309 0.014483496 0.37029999 7167570
-0.012012254 0.013286805 0.3715381 7430227
-0.008223434 0.012004522 0.37299049 7495760
-0.056506462 0.016885299 0.37297145 11971745
-0.052708495 0.018221956 0.37205651 5589055
-0.048378557 0.019433217 0.37101665 5189663
-0.026480034 0.019575754 0.3707 6245438
-0.022259571 0.019116933 0.37159166 6507068
-0.017334325 0.01829211 0.37196007 6767924
-0.012625298 0.017474342 0.37328178 7161909
-0.0091777993 0.01655498 0.37446666 7626061
-0.051035803 0.021470543 0.37417999 5192493
-0.047209892 0.022210158 0.37278461 5386269
-0.04282245 0.023025688 0.37150002 5649442
-0.037618514 0.023624884 0.37059996 5649186
-0.032029554 0.023090847 0.37125558 5846823
-0.027475357 0.022331757 0.37272143 5715237
-0.022652859 0.021689229 0.37361252 6503981
-0.017589338 0.021170558 0.37385452 6765091
-0.013864093 0.020806266 0.37446666 6960154
-0.045755241 0.025475807 0.37446666 5060392
-0.041896302 0.026834575 0.37393749 5191979
-0.03753325 0.027231514 0.37326446 5322793
-0.033189017 0.026939448 0.3738111 5585448
-0.02969197 0.0252118 0.37469998 5715495
-0.25635237 0.16767511 0.37185001 4869703
-0.25276792 0.16643129 0.37102002 4935498
-0.2496525 0.16750108 0.37149999 5066312
-0.25789919 0.17043073 0.37219998 4804429
-0.021715155 -0.052593127 0.37581247 7215362
-0.000680745 -0.015313993 0.37529999 3154964
-0.00068101054 -0.012226623 0.37529996 3286804
0.00020027538 -0.012226689 0.37529996 2960669
-0.00068131834 -0.0073745837 0.37529999 2635295
0.00064268953 -0.0073925867 0.37622997 2963494
-0.00090242142 -0.0020818645 0.37563747 2966829
0.00091015099 -0.0024432281 0.37704664 3557165
-0.0015052172 0.0027221434 0.37713569 5458231
0.00053638656 0.0020227917 0.3793875 4797478
-0.064880408 0.0084909191 0.37529999 11380380
-0.0050875745 0.0089472383 0.37529999 6836288
-0.002645944 0.0073576649 0.37737387 6309431
-0.062141765 0.012628803 0.37606663 11971230
-0.0059241331 0.013070639 0.3763133 6968132
-0.0033027923 0.012337022 0.37851667 6243639
-0.060837168 0.016740046 0.37853998 12695207
-0.058271874 0.018180469 0.37691814 12300194
-0.011253189 0.019971589 0.37530002 7423275
-0.0069165765 0.017527834 0.37714779 7297352
-0.0038111119 0.016200567 0.37989998 6045489
-0.056509059 0.021893008 0.37850833 11774623
-0.052963644 0.022961065 0.37700993 6379598
-0.049109042 0.024076382 0.37553334 5257519
-0.025803894 0.024396129 0.37564999 6240812
-0.021870222 0.023821799 0.37617686 6899252
-0.01747944 0.023583084 0.37665996 6700071
-0.012483237 0.022920921 0.37702596 7029807
-0.0081476383 0.021819619 0.37809086 7560523
-0.051346593 0.02637906 0.37908998 5655105
-0.047472715 0.027594427 0.37738749 5391418
-0.043648828 0.02874816 0.37622997 5325880
-0.031319886 0.028695544 0.37553328 5653298
-0.027572891 0.027622202 0.37666863 5783086
-0.022585465 0.027453512 0.37898126 5257004
-0.017969398 0.026736721 0.37932351 6179132
-0.013546938 0.025812184 0.37969998 6575179
-0.046487428 0.031069191 0.37928748 5260345
-0.042189699 0.031843755 0.37798819 4997170
-0.037412401 0.032474406 0.37734666 4996912
-0.032547671 0.032476641 0.37733597 5391413
-0.027755884 0.032565679 0.37833998 5654585
-0.02333875 0.03193872 0.37975261 4403235
-0.019410167 0.030028913 0.37989998 3351578
-0.035437211 0.035365965 0.37989998 2036231
-0.031846952 0.035559926 0.37954998 5325622
-0.027408296 0.035800077 0.37968999 5523256
-0.024751974 0.035821967 0.37989998 5324076
0.0010982287 0.0037114443 0.38119999 4728348
-0.0006916374 0.0081891539 0.38099998 6045233
0.00056397222 0.007237392 0.38262999 5452841
-0.0012617809 0.012893484 0.38171819 5584940
0.00020498339 0.011420149 0.38426664 4269339
-0.060550716 0.01936068 0.38119999 12694436
-0.0051566851 0.019355662 0.38049999 7625545
-0.00239214 0.017658494 0.38246846 6177331
-0.05812211 0.023183804 0.38224 11840159
-0.0061291791 0.023383584 0.38159281 5124905
-0.0035572648 0.021710323 0.38329086 5386788
-0.055980634 0.026651988 0.38307142 10985623
-0.053160928 0.027997062 0.38212138 7629925
-0.049753465 0.029156333 0.38049999 5523778
-0.016875129 0.028625757 0.38050002 4272941
-0.012506505 0.027896469 0.38091734 5523781
-0.0077737803 0.027495159 0.38275382 5062717
-0.051566724 0.031792022 0.38330767 5918793
-0.047926795 0.032952283 0.38210452 5326139
-0.043044835 0.034254503 0.38126251 4931633
-0.021283466 0.032993387 0.38049996 4861474
-0.017227264 0.032481622 0.38094988 5324342
-0.012422725 0.032346096 0.38171607 5324855
-0.0083975801 0.032457627 0.38331738 5783866
-0.046613794 0.03573769 0.38403332 5194294
-0.04195885 0.036945622 0.38340002 4471846
-0.037509304 0.037442721 0.38213745 2564111
-0.032601636 0.0378584 0.38129541 3614494
-0.027486052 0.038136721 0.38077995 4601898
-0.022435827 0.037378553 0.38112852 5980716
-0.017283337 0.037399299 0.38227659 6571310
-0.012514735 0.03738407 0.38369128 5781535
-0.0090372805 0.036023952 0.384325 5187349
-0.040813677 0.040297873 0.3845 2894609
-0.037495635 0.041098807 0.3841143 3026195
-0.032468107 0.041799441 0.38345179 2890764
-0.027521899 0.041949548 0.3832576 3748377
-0.022893781 0.041044421 0.38337502 4403224
-0.017817901 0.040511917 0.38416252 5718052
-0.056777664 -0.046888966 0.3892 8070662
0.0007530828 0.013500175 0.38694 3874583
-0.0006987534 0.018700363 0.38539997 7954769
0.00066518853 0.017479507 0.38843337 6310717
-0.0016700708 0.022766259 0.38632852 7361347
0.00020853631 0.02253147 0.38897997 7758674
-0.057405811 0.028317971 0.38674441 10722965
-0.054872677 0.029511029 0.38519999 10065294
-0.0052245483 0.028225761 0.38565001 2954257
-0.00280284 0.027360439 0.38816151 5978929
-0.05607922 0.032308642 0.38777855 9999243
-0.052901044 0.033342935 0.38578179 8090733
-0.0058057625 0.032589898 0.38614541 4335906
-0.0036093532 0.032098319 0.38917273 3414289
-0.055990502 0.035357032 0.3899 9473153
-0.05231465 0.037387554 0.38846824 7696231
-0.04761776 0.038122103 0.38665199 4206628
-0.043292977 0.038836721 0.38537145 2892306
-0.011090301 0.039495513 0.38519999 5128989
-0.0072244518 0.037856128 0.38724816 5454888
-0.0043649497 0.035403963 0.3899 2559232
-0.050953429 0.042440072 0.3898125 7762283
-0.047383409 0.04238243 0.3880322 4535080
-0.042461436 0.042438522 0.38615215 2760975
-0.037367962 0.04386282 0.38557497 2565902
-0.032713238 0.044660278 0.38537145 3219470
-0.02716505 0.044666715 0.38537145 4209689
-0.022030614 0.04347004 0.38626358 4340247
-0.017334985 0.042996056 0.38713634 5656362
-0.012642459 0.042323161 0.38766956 5918759
-0.0086825686 0.041765857 0.38877499 6637606
-0.046655308 0.046468787 0.38932857 5193523
-0.042543028 0.047449026 0.3883242 3613975
-0.037604809 0.047715224 0.38748133 2104331
-0.032431178 0.047791466 0.38666803 1577990
-0.027388357 0.047736205 0.38688394 3683093
-0.022948207 0.047049891 0.38862276 4407317
-0.018364182 0.045561377 0.38944998 5393954
-0.041828286 0.050734133 0.3899 3811357
-0.036996994 0.051557347 0.38950002 1446409
-0.032623157 0.051727973 0.38901329 2299658
-0.027843565 0.051632471 0.38910621 4465683
-0.024019107 0.050484616 0.3899 5189656
-0.061983932 -0.05176954 0.39345834 8540231
-0.058172803 -0.050677437 0.39425552 8200453
-0.061147328 -0.048929472 0.391 8068102
-0.057230283 -0.048646897 0.39234999 8135430
-0.053661186 -0.047360025 0.39304999 8860948
-0.039583035 -0.049445961 0.39479998 9650199
0.0020543677 0.019515816 0.39269999 6904395
0.0015920994 0.022706028 0.39199999 7758931
-0.0007081221 0.028181277 0.39129999 8414037
0.00099357986 0.027165981 0.39296925 7758419
-0.057462022 0.034502584 0.3906 9802118
-0.0016266144 0.033014726 0.39195338 6837061
0.00047723818 0.031697307 0.3942 7561807
-0.056478586 0.037680548 0.39244545 9341570
-0.054477427 0.038216725 0.39106667 8947326
-0.0027264678 0.037481952 0.3929334 5393711
-0.055783834 0.041567456 0.39386666 8815484
-0.053053748 0.042888891 0.39185002 8420727
-0.011243207 0.044631846 0.3906 6964002
-0.006831117 0.043223765 0.39165008 6502945
-0.0033690925 0.042155996 0.39418754 6050610
-0.051285837 0.047221869 0.39240003 8025970
-0.048171286 0.048283555 0.39085454 6248267
-0.021097669 0.048539843 0.390775 4997144
-0.017503876 0.047911365 0.3915334 6243617
-0.012673429 0.047603369 0.39242008 6763292
-0.0082364101 0.047165446 0.39375007 7357230
-0.0044166092 0.045115136 0.39479998 7625795
-0.05076284 0.051174641 0.39374998 7697005
-0.047503117 0.052015625 0.39254791 6379855
-0.04245919 0.053071748 0.39172617 3878434
-0.037615117 0.054014128 0.3914077 2891541
-0.032328937 0.054283544 0.39100835 3742220
-0.027093412 0.054126684 0.39147499 5185552
-0.022105457 0.052358072 0.39236304 5710867
-0.017518559 0.051970065 0.39382008 6499355
-0.013315715 0.051083919 0.39444998 6697251
-0.045540616 0.055201266 0.39444998 5326399
-0.04205123 0.056571517 0.39404616 2892572
-0.037646163 0.057459749 0.39399508 4668723
-0.032461856 0.057814665 0.39364147 4600870
-0.027636675 0.057296854 0.39382783 4861470
-0.02365615 0.055493731 0.39409998 5512977
-0.06140402 -0.05597318 0.39795002 9606040
-0.057322841 -0.057195775 0.39947695 9927286
-0.052561194 -0.056989342 0.39979997 8730659
-0.048962109 -0.055675521 0.3998 8068355
-0.061183337 -0.053914521 0.39623332 9269872
-0.057352077 -0.053028446 0.39707366 8003851
-0.052502375 -0.052641202 0.3988291 8200197
-0.048535779 -0.052239858 0.39963526 8202506
-0.042069651 -0.050916053 0.39910001 9387801
-0.038436633 -0.051626768 0.39731666 9189909
-0.052173059 -0.048713386 0.39748752 8663056
-0.047726814 -0.047977809 0.3992615 9715479
-0.042945944 -0.049053557 0.39765999 9781270
0.0030034303 0.024810359 0.3962 7232330
0.0027434158 0.028048459 0.39685711 7758676
0.00201027 0.03262585 0.39722306 6905159
-0.00071364193 0.03869899 0.39550003 5330735
0.0011526425 0.037572335 0.39830619 5330735
-0.056626596 0.043108508 0.396025 9012350
-0.001127033 0.04270643 0.39631113 5855028
0.00081432651 0.042529721 0.39897272 6117179
-0.055770297 0.046619721 0.39822498 8552058
-0.053910114 0.047758181 0.39671111 8158069
-0.0064911549 0.048643913 0.39588886 7494727
-0.002498904 0.047334049 0.39720413 6837571
0.00040629911 0.046781234 0.39952001 6509892
-0.05505123 0.050314188 0.3998 8223349
-0.052557576 0.052337591 0.39767274 7894384
-0.049407847 0.054462962 0.39585 7499626
-0.016676361 0.054315198 0.39578 6303781
-0.012048621 0.053367026 0.39650959 7492679
-0.0075546205 0.052111905 0.39771426 7494988
-0.0034081482 0.05086251 0.39901251 7232330
-0.050618276 0.056187823 0.39933333 7499626
-0.047301292 0.057542764 0.39728186 5722443
-0.043069158 0.058488369 0.39582217 2366998
-0.035933714 0.059996456 0.39550003 4734257
-0.02620839 0.059084892 0.3955 5588020
-0.022245182 0.057761807 0.3964417 5715754
-0.017480535 0.057498265 0.39725602 6703934
-0.012392059 0.057667486 0.39840004 7297868
-0.0087785367 0.056352489 0.39966002 7298125
-0.046361972 0.060837336 0.399625 5525063
-0.042245369 0.061513159 0.39858663 2959133
-0.037517026 0.062319256 0.39779198 4669234
-0.032321565 0.062504739 0.39667499 4865073
-0.027521996 0.062206794 0.39746672 5194292
-0.022779725 0.061267938 0.39881995 5654840
-0.017333301 0.061296642 0.39927503 6377794
-0.013413315 0.061150748 0.39948893 7166796
-0.035817273 0.065271795 0.39945 4603183
-0.032355316 0.06638886 0.39918229 4602926
-0.028372014 0.06604398 0.39941818 4800305
0.055953432 0.091269821 0.39886665 7105122
-0.056171414 -0.060565442 0.40129998 9999509
-0.052207548 -0.061092839 0.40238747 10065040
-0.047683153 -0.061286032 0.40310001 10586238
-0.043819197 -0.060557939 0.40419999 8203034
-0.056699593 -0.059520897 0.40059999 10065043
-0.051629592 -0.058829322 0.40059999 9857628
-0.047241792 -0.057947356 0.40157783 8135437
-0.043079082 -0.056986276 0.40325907 7805700
-0.046375103 -0.052703321 0.40070769 8531471
-0.042883344 -0.052909583 0.40115261 8137484
-0.039289959 -0.053553358 0.40129998 8071178
-0.046260826 -0.049223669 0.40059999 9518613
0.0030377838 0.034495845 0.40059999 5591604
0.0032070491 0.037608687 0.40201664 5461810
0.0025772403 0.042612512 0.40176001 6708806
0.0020488214 0.047818813 0.40247336 6838601
-0.053280778 0.054171711 0.40059999 7828591
-0.0057342867 0.053951558 0.40083334 7429711
-0.002313555 0.05309397 0.40216875 7363918
0.00085361727 0.05145815 0.40336666 7561297
-0.051553145 0.057315726 0.40178332 7434090
-0.049608793 0.059911676 0.40129998 7302247
-0.0069418745 0.057635993 0.40206999 7232845
-0.0041989335 0.055952359 0.40396667 7298124
-0.050824285 0.060238108 0.40349999 7368040
-0.047524862 0.062840082 0.40277335 6117971
-0.04286731 0.064001799 0.40152997 4866618
-0.025132159 0.06453903 0.40059999 5391672
-0.022110747 0.063923784 0.40112498 5589305
-0.017868493 0.063857861 0.40124613 6115393
-0.012049668 0.063349351 0.40117145 7035723
-0.0080552334 0.062206857 0.40289417 6509380
-0.041348621 0.066354938 0.40324998 4932410
-0.037485577 0.067530885 0.40233001 4537646
-0.033056889 0.06901595 0.40148747 4405802
-0.026934331 0.068066493 0.40104207 4734512
-0.022432929 0.067726418 0.40279603 5326136
-0.017835377 0.067483626 0.40345713 5983808
-0.012747695 0.067180313 0.40350002 6970445
-0.0088719968 0.066460982 0.40419999 7167052
-0.031784981 0.071066715 0.40350002 2695702
-0.026899531 0.071792901 0.40325299 3156252
-0.022840342 0.07251595 0.40373334 3155740
-0.019668315 0.070802361 0.40419999 5128500
0.054403912 0.089187987 0.40346667 7040099
0.054458633 0.092043586 0.40314445 7170915
0.05557394 0.091199607 0.40059999 7105122
0.053138066 0.095160015 0.40349999 7236708
-0.020966642 0.10288966 0.40381113 4473143
-0.017728409 0.10254185 0.40257856 4407349
-0.012458052 0.10209936 0.40257037 4472882
-0.0088352142 0.10343178 0.40405998 4603441
-0.021444997 0.1053947 0.403 4604471
-0.019508786 0.10560449 0.40199998 4538678
0.004024182 0.042496629 0.40514001 6774090
0.0040335539 0.047353171 0.40601999 7101263
0.005017621 0.047649052 0.40855998 7364178
-0.0007265319 0.054830782 0.405 7561297
0.002613734 0.052582245 0.40700716 7561297
0.0050294967 0.050639946 0.4095 7561299
-0.002532132 0.057832763 0.40643159 6903879
0.00070572633 0.056630556 0.40855002 7035208
-0.0058353441 0.062847219 0.40544999 6640966
-0.0030086781 0.062356114 0.40840954 6772296
-0.04647319 0.066843703 0.40684 5920847
-0.043048125 0.068262234 0.40659282 4998974
-0.037729386 0.069966383 0.405 3287834
-0.017335711 0.069997571 0.405 5720636
-0.011166412 0.069055773 0.405 7102031
-0.0068856189 0.067586184 0.40604207 6969931
-0.003038191 0.067563027 0.4089773 5523256
-0.04206302 0.070740245 0.40842 5986124
-0.037492141 0.07169079 0.4076083 2301458
-0.032485444 0.073119976 0.40666664 1709324
-0.027999489 0.073848478 0.40541428 1643789
-0.020653134 0.073309854 0.405 2629654
-0.017425831 0.072776698 0.40591198 3418656
-0.012291462 0.072238259 0.40730762 4207911
0.053003643 0.087975286 0.40808949 6974049
0.052741855 0.092499949 0.40811762 6974050
-0.012422107 0.097794704 0.40698752 4406319
-0.0090688504 0.099102996 0.40794998 4471856
0.052299455 0.096224427 0.40799999 6908513
-0.026196683 0.10094243 0.40933999 4736571
